ply
format ascii 1.0
element vertex 847
property float x
property float y
property float z
property float nx
property float ny
property float nz
end_header
-0.016867 -0.129379 -0.264378 0.000000 0.000000 0.000000
-0.000997 -0.129379 -0.264813 0.000000 0.000000 0.000000
0.013541 -0.129379 -0.267181 0.000000 0.000000 0.000000
0.026040 -0.129379 -0.264194 0.000000 0.000000 0.000000
0.043372 -0.129379 -0.264102 0.000000 0.000000 0.000000
0.056381 -0.129379 -0.262622 0.000000 0.000000 0.000000
0.074875 -0.129379 -0.265141 0.000000 0.000000 0.000000
0.087226 -0.129379 -0.264967 0.000000 0.000000 0.000000
0.101316 -0.129379 -0.264317 0.000000 0.000000 0.000000
0.120183 -0.129379 -0.264950 0.000000 0.000000 0.000000
0.132465 -0.129379 -0.265850 0.000000 0.000000 0.000000
0.149966 -0.129379 -0.261949 0.000000 0.000000 0.000000
0.162376 -0.127876 -0.265088 0.000000 0.000000 0.000000
-0.164736 -0.113267 -0.265389 0.000000 0.000000 0.000000
0.164736 -0.116703 -0.263626 0.000000 0.000000 0.000000
-0.162253 -0.105578 -0.266314 0.000000 0.000000 0.000000
-0.151849 -0.104979 -0.266280 0.000000 0.000000 0.000000
-0.135656 -0.104979 -0.264042 0.000000 0.000000 0.000000
-0.122029 -0.104979 -0.264205 0.000000 0.000000 0.000000
-0.106861 -0.104979 -0.263687 0.000000 0.000000 0.000000
-0.091822 -0.104979 -0.265441 0.000000 0.000000 0.000000
-0.077016 -0.104979 -0.264965 0.000000 0.000000 0.000000
-0.060772 -0.104979 -0.265864 0.000000 0.000000 0.000000
-0.045510 -0.104979 -0.265117 0.000000 0.000000 0.000000
-0.032632 -0.104979 -0.266043 0.000000 0.000000 0.000000
-0.016905 -0.104979 -0.265883 0.000000 0.000000 0.000000
-0.001308 -0.104979 -0.264195 0.000000 0.000000 0.000000
0.013215 -0.104979 -0.266031 0.000000 0.000000 0.000000
0.029384 -0.104979 -0.265280 0.000000 0.000000 0.000000
0.040947 -0.104979 -0.263300 0.000000 0.000000 0.000000
0.058219 -0.104979 -0.265016 0.000000 0.000000 0.000000
0.073419 -0.104979 -0.266161 0.000000 0.000000 0.000000
0.088199 -0.104979 -0.263998 0.000000 0.000000 0.000000
0.105642 -0.104979 -0.267500 0.000000 0.000000 0.000000
0.118937 -0.104979 -0.264892 0.000000 0.000000 0.000000
0.132345 -0.104979 -0.264874 0.000000 0.000000 0.000000
0.148406 -0.104979 -0.263981 0.000000 0.000000 0.000000
0.160775 -0.105186 -0.266535 0.000000 0.000000 0.000000
-0.184289 -0.449007 -0.250138 0.000000 0.000000 0.000000
-0.165735 -0.447268 -0.249088 0.000000 0.000000 0.000000
0.165531 -0.447924 -0.252722 0.000000 0.000000 0.000000
0.177843 -0.452250 -0.248115 0.000000 0.000000 0.000000
0.188870 -0.446681 -0.250163 0.000000 0.000000 0.000000
-0.188962 -0.427492 -0.248975 0.000000 0.000000 0.000000
-0.164736 -0.432641 -0.251036 0.000000 0.000000 0.000000
0.164736 -0.428965 -0.249945 0.000000 0.000000 0.000000
0.188962 -0.429845 -0.250814 0.000000 0.000000 0.000000
-0.188962 -0.415302 -0.248753 0.000000 0.000000 0.000000
-0.164736 -0.415601 -0.251216 0.000000 0.000000 0.000000
0.164736 -0.415991 -0.251108 0.000000 0.000000 0.000000
0.188962 -0.415192 -0.250043 0.000000 0.000000 0.000000
-0.188962 -0.402008 -0.251204 0.000000 0.000000 0.000000
-0.164736 -0.400259 -0.249854 0.000000 0.000000 0.000000
0.164736 -0.400343 -0.250097 0.000000 0.000000 0.000000
0.188962 -0.398872 -0.248070 0.000000 0.000000 0.000000
-0.188962 -0.384992 -0.252071 0.000000 0.000000 0.000000
-0.164736 -0.384170 -0.249773 0.000000 0.000000 0.000000
0.164736 -0.385669 -0.248834 0.000000 0.000000 0.000000
0.188962 -0.387009 -0.249447 0.000000 0.000000 0.000000
-0.186101 -0.370791 -0.253125 0.000000 0.000000 0.000000
-0.166460 -0.369228 -0.251334 0.000000 0.000000 0.000000
0.165326 -0.369979 -0.250354 0.000000 0.000000 0.000000
0.178713 -0.369621 -0.255650 0.000000 0.000000 0.000000
0.188476 -0.369770 -0.250443 0.000000 0.000000 0.000000
-0.183051 -0.356366 -0.246874 0.000000 0.000000 0.000000
-0.166691 -0.359100 -0.247301 0.000000 0.000000 0.000000
0.166869 -0.355517 -0.246216 0.000000 0.000000 0.000000
0.177371 -0.354029 -0.246786 0.000000 0.000000 0.000000
0.188185 -0.356329 -0.246632 0.000000 0.000000 0.000000
-0.184429 -0.347507 -0.242959 0.000000 0.000000 0.000000
0.165258 -0.347362 -0.242996 0.000000 0.000000 0.000000
-0.163399 -0.126706 -0.250318 0.000000 0.000000 0.000000
-0.152556 -0.129379 -0.249134 0.000000 0.000000 0.000000
-0.134926 -0.129379 -0.250581 0.000000 0.000000 0.000000
-0.120006 -0.128190 -0.247971 0.000000 0.000000 0.000000
-0.105733 -0.129297 -0.250692 0.000000 0.000000 0.000000
-0.090097 -0.129379 -0.250301 0.000000 0.000000 0.000000
-0.073684 -0.128649 -0.248587 0.000000 0.000000 0.000000
-0.061177 -0.129267 -0.250973 0.000000 0.000000 0.000000
-0.048894 -0.129379 -0.250437 0.000000 0.000000 0.000000
-0.034036 -0.129379 -0.250240 0.000000 0.000000 0.000000
-0.015728 -0.128884 -0.247909 0.000000 0.000000 0.000000
-0.001628 -0.129379 -0.250302 0.000000 0.000000 0.000000
0.014450 -0.128788 -0.247919 0.000000 0.000000 0.000000
0.024831 -0.128901 -0.250931 0.000000 0.000000 0.000000
0.042560 -0.129379 -0.251525 0.000000 0.000000 0.000000
0.059442 -0.129379 -0.249706 0.000000 0.000000 0.000000
0.072886 -0.128012 -0.249458 0.000000 0.000000 0.000000
0.087960 -0.129379 -0.250273 0.000000 0.000000 0.000000
0.104361 -0.129379 -0.249382 0.000000 0.000000 0.000000
0.119177 -0.128475 -0.246963 0.000000 0.000000 0.000000
0.134603 -0.129379 -0.249418 0.000000 0.000000 0.000000
0.149126 -0.129379 -0.249244 0.000000 0.000000 0.000000
0.163330 -0.128594 -0.247996 0.000000 0.000000 0.000000
-0.164736 -0.114200 -0.252119 0.000000 0.000000 0.000000
-0.118278 -0.113258 -0.244300 0.000000 0.000000 0.000000
-0.112408 -0.113644 -0.244028 0.000000 0.000000 0.000000
-0.071710 -0.115450 -0.243948 0.000000 0.000000 0.000000
-0.067061 -0.115692 -0.244608 0.000000 0.000000 0.000000
-0.025778 -0.114430 -0.244122 0.000000 0.000000 0.000000
-0.020638 -0.119031 -0.244505 0.000000 0.000000 0.000000
0.019381 -0.115746 -0.243965 0.000000 0.000000 0.000000
0.024859 -0.116109 -0.244509 0.000000 0.000000 0.000000
0.065894 -0.116628 -0.243963 0.000000 0.000000 0.000000
0.069428 -0.115280 -0.244608 0.000000 0.000000 0.000000
0.116123 -0.114683 -0.244069 0.000000 0.000000 0.000000
0.164736 -0.114607 -0.250551 0.000000 0.000000 0.000000
-0.162331 -0.105196 -0.250847 0.000000 0.000000 0.000000
-0.151612 -0.104979 -0.250648 0.000000 0.000000 0.000000
-0.137313 -0.104979 -0.249732 0.000000 0.000000 0.000000
-0.120491 -0.104996 -0.250659 0.000000 0.000000 0.000000
-0.106911 -0.104979 -0.249982 0.000000 0.000000 0.000000
-0.090396 -0.104979 -0.250220 0.000000 0.000000 0.000000
-0.074167 -0.105365 -0.248801 0.000000 0.000000 0.000000
-0.061107 -0.105242 -0.251377 0.000000 0.000000 0.000000
-0.049681 -0.104979 -0.251773 0.000000 0.000000 0.000000
-0.031567 -0.104979 -0.252371 0.000000 0.000000 0.000000
-0.018016 -0.104988 -0.249339 0.000000 0.000000 0.000000
-0.001759 -0.104979 -0.251861 0.000000 0.000000 0.000000
0.012950 -0.105233 -0.248809 0.000000 0.000000 0.000000
0.026717 -0.105235 -0.250278 0.000000 0.000000 0.000000
0.042150 -0.104979 -0.248545 0.000000 0.000000 0.000000
0.058237 -0.105230 -0.249888 0.000000 0.000000 0.000000
0.073927 -0.105143 -0.250272 0.000000 0.000000 0.000000
0.089843 -0.104979 -0.249008 0.000000 0.000000 0.000000
0.102367 -0.104979 -0.248104 0.000000 0.000000 0.000000
0.118961 -0.104986 -0.247188 0.000000 0.000000 0.000000
0.134031 -0.104979 -0.250870 0.000000 0.000000 0.000000
0.149872 -0.104979 -0.252319 0.000000 0.000000 0.000000
0.162390 -0.105210 -0.251427 0.000000 0.000000 0.000000
-0.180961 -0.443531 -0.239802 0.000000 0.000000 0.000000
-0.168408 -0.441819 -0.238848 0.000000 0.000000 0.000000
0.166077 -0.443253 -0.240362 0.000000 0.000000 0.000000
0.179205 -0.444074 -0.239832 0.000000 0.000000 0.000000
0.187930 -0.445675 -0.240783 0.000000 0.000000 0.000000
-0.186002 -0.429604 -0.233349 0.000000 0.000000 0.000000
-0.167918 -0.429376 -0.233369 0.000000 0.000000 0.000000
0.165857 -0.429281 -0.234532 0.000000 0.000000 0.000000
0.182119 -0.430731 -0.232247 0.000000 0.000000 0.000000
0.188273 -0.429050 -0.234469 0.000000 0.000000 0.000000
-0.188962 -0.415407 -0.233824 0.000000 0.000000 0.000000
-0.164736 -0.416940 -0.235434 0.000000 0.000000 0.000000
0.164736 -0.413533 -0.235930 0.000000 0.000000 0.000000
0.188962 -0.415874 -0.233885 0.000000 0.000000 0.000000
-0.188962 -0.401035 -0.235328 0.000000 0.000000 0.000000
-0.164736 -0.399453 -0.233623 0.000000 0.000000 0.000000
0.164736 -0.401816 -0.235949 0.000000 0.000000 0.000000
0.188962 -0.399242 -0.234597 0.000000 0.000000 0.000000
-0.188962 -0.387828 -0.237068 0.000000 0.000000 0.000000
-0.164736 -0.385725 -0.234580 0.000000 0.000000 0.000000
0.164736 -0.389845 -0.233009 0.000000 0.000000 0.000000
0.188962 -0.383731 -0.235285 0.000000 0.000000 0.000000
-0.188962 -0.369915 -0.234300 0.000000 0.000000 0.000000
-0.164736 -0.372396 -0.238030 0.000000 0.000000 0.000000
0.164736 -0.371126 -0.232697 0.000000 0.000000 0.000000
0.188962 -0.371366 -0.239148 0.000000 0.000000 0.000000
-0.188962 -0.355175 -0.234431 0.000000 0.000000 0.000000
-0.164736 -0.355758 -0.235551 0.000000 0.000000 0.000000
0.164736 -0.354256 -0.234550 0.000000 0.000000 0.000000
0.188962 -0.355583 -0.233746 0.000000 0.000000 0.000000
-0.184800 -0.340856 -0.237317 0.000000 0.000000 0.000000
-0.165928 -0.340467 -0.235757 0.000000 0.000000 0.000000
0.165170 -0.338358 -0.233474 0.000000 0.000000 0.000000
0.180303 -0.340518 -0.239105 0.000000 0.000000 0.000000
0.188716 -0.341941 -0.235352 0.000000 0.000000 0.000000
-0.183852 -0.328601 -0.231897 0.000000 0.000000 0.000000
-0.167355 -0.326648 -0.230520 0.000000 0.000000 0.000000
0.166186 -0.328609 -0.231116 0.000000 0.000000 0.000000
0.177038 -0.327831 -0.231893 0.000000 0.000000 0.000000
0.188358 -0.326646 -0.230166 0.000000 0.000000 0.000000
-0.161960 -0.129346 -0.235828 0.000000 0.000000 0.000000
-0.150786 -0.129379 -0.235949 0.000000 0.000000 0.000000
-0.136128 -0.129379 -0.233155 0.000000 0.000000 0.000000
-0.122401 -0.127783 -0.234713 0.000000 0.000000 0.000000
-0.106564 -0.128740 -0.235888 0.000000 0.000000 0.000000
-0.094210 -0.129379 -0.235938 0.000000 0.000000 0.000000
-0.075048 -0.127871 -0.234731 0.000000 0.000000 0.000000
-0.060769 -0.128492 -0.236467 0.000000 0.000000 0.000000
-0.047624 -0.129379 -0.234919 0.000000 0.000000 0.000000
-0.029691 -0.128519 -0.234840 0.000000 0.000000 0.000000
-0.017263 -0.127976 -0.234157 0.000000 0.000000 0.000000
-0.000355 -0.129379 -0.233926 0.000000 0.000000 0.000000
0.014401 -0.128398 -0.235846 0.000000 0.000000 0.000000
0.028676 -0.127023 -0.234973 0.000000 0.000000 0.000000
0.047090 -0.129379 -0.238532 0.000000 0.000000 0.000000
0.062370 -0.127816 -0.233135 0.000000 0.000000 0.000000
0.075503 -0.127843 -0.235794 0.000000 0.000000 0.000000
0.088541 -0.129379 -0.236224 0.000000 0.000000 0.000000
0.102589 -0.129379 -0.236694 0.000000 0.000000 0.000000
0.120436 -0.127347 -0.236110 0.000000 0.000000 0.000000
0.131671 -0.129379 -0.235099 0.000000 0.000000 0.000000
0.150070 -0.129379 -0.234589 0.000000 0.000000 0.000000
0.162101 -0.128769 -0.234548 0.000000 0.000000 0.000000
-0.164736 -0.114799 -0.236376 0.000000 0.000000 0.000000
-0.120160 -0.116462 -0.233247 0.000000 0.000000 0.000000
-0.112408 -0.115547 -0.235434 0.000000 0.000000 0.000000
-0.073647 -0.113139 -0.235647 0.000000 0.000000 0.000000
-0.065894 -0.111328 -0.236429 0.000000 0.000000 0.000000
-0.027133 -0.114294 -0.235664 0.000000 0.000000 0.000000
-0.019381 -0.113577 -0.234256 0.000000 0.000000 0.000000
0.019381 -0.115280 -0.236305 0.000000 0.000000 0.000000
0.027133 -0.113915 -0.234863 0.000000 0.000000 0.000000
0.065894 -0.113484 -0.235617 0.000000 0.000000 0.000000
0.073647 -0.118221 -0.234840 0.000000 0.000000 0.000000
0.116284 -0.116388 -0.235026 0.000000 0.000000 0.000000
0.164736 -0.114734 -0.233280 0.000000 0.000000 0.000000
-0.163777 -0.106740 -0.236575 0.000000 0.000000 0.000000
-0.151428 -0.104979 -0.236065 0.000000 0.000000 0.000000
-0.135948 -0.104979 -0.235131 0.000000 0.000000 0.000000
-0.124247 -0.105211 -0.235110 0.000000 0.000000 0.000000
-0.108789 -0.105719 -0.237244 0.000000 0.000000 0.000000
-0.092105 -0.104979 -0.234054 0.000000 0.000000 0.000000
-0.077650 -0.105371 -0.234919 0.000000 0.000000 0.000000
-0.061274 -0.105175 -0.233639 0.000000 0.000000 0.000000
-0.048057 -0.104979 -0.237703 0.000000 0.000000 0.000000
-0.032060 -0.105288 -0.234431 0.000000 0.000000 0.000000
-0.012273 -0.105109 -0.236169 0.000000 0.000000 0.000000
0.000068 -0.104979 -0.235739 0.000000 0.000000 0.000000
0.015072 -0.105188 -0.235446 0.000000 0.000000 0.000000
0.030451 -0.105428 -0.236777 0.000000 0.000000 0.000000
0.043418 -0.104979 -0.234230 0.000000 0.000000 0.000000
0.058125 -0.105230 -0.235160 0.000000 0.000000 0.000000
0.075515 -0.105366 -0.235796 0.000000 0.000000 0.000000
0.088564 -0.104979 -0.233510 0.000000 0.000000 0.000000
0.103063 -0.104979 -0.234653 0.000000 0.000000 0.000000
0.116899 -0.105472 -0.232955 0.000000 0.000000 0.000000
0.133414 -0.104979 -0.232002 0.000000 0.000000 0.000000
0.146148 -0.104979 -0.235056 0.000000 0.000000 0.000000
0.161724 -0.105583 -0.234359 0.000000 0.000000 0.000000
-0.166970 -0.422866 -0.227658 0.000000 0.000000 0.000000
0.187635 -0.422775 -0.227724 0.000000 0.000000 0.000000
-0.181227 -0.415658 -0.223705 0.000000 0.000000 0.000000
-0.167007 -0.415960 -0.224896 0.000000 0.000000 0.000000
0.165099 -0.412415 -0.224254 0.000000 0.000000 0.000000
0.177033 -0.413444 -0.222420 0.000000 0.000000 0.000000
0.187820 -0.415255 -0.224631 0.000000 0.000000 0.000000
-0.183965 -0.401626 -0.218018 0.000000 0.000000 0.000000
-0.166524 -0.401412 -0.218325 0.000000 0.000000 0.000000
0.165849 -0.401806 -0.220746 0.000000 0.000000 0.000000
0.177901 -0.402881 -0.216415 0.000000 0.000000 0.000000
0.188538 -0.401076 -0.219356 0.000000 0.000000 0.000000
-0.188962 -0.384660 -0.219019 0.000000 0.000000 0.000000
-0.164736 -0.383704 -0.220322 0.000000 0.000000 0.000000
0.164736 -0.385474 -0.219494 0.000000 0.000000 0.000000
0.188962 -0.382405 -0.222348 0.000000 0.000000 0.000000
-0.188962 -0.369522 -0.220348 0.000000 0.000000 0.000000
-0.164736 -0.370798 -0.219646 0.000000 0.000000 0.000000
0.164736 -0.369234 -0.219837 0.000000 0.000000 0.000000
0.188962 -0.370104 -0.220821 0.000000 0.000000 0.000000
-0.188962 -0.355640 -0.219999 0.000000 0.000000 0.000000
-0.164736 -0.354570 -0.221151 0.000000 0.000000 0.000000
0.164736 -0.355733 -0.221552 0.000000 0.000000 0.000000
0.188962 -0.356313 -0.218790 0.000000 0.000000 0.000000
-0.188962 -0.340168 -0.219772 0.000000 0.000000 0.000000
-0.164736 -0.342702 -0.220440 0.000000 0.000000 0.000000
0.164736 -0.342617 -0.219249 0.000000 0.000000 0.000000
0.188962 -0.339570 -0.220218 0.000000 0.000000 0.000000
-0.187912 -0.324138 -0.221623 0.000000 0.000000 0.000000
-0.164736 -0.325898 -0.220552 0.000000 0.000000 0.000000
0.165542 -0.324490 -0.221224 0.000000 0.000000 0.000000
0.181186 -0.319954 -0.227415 0.000000 0.000000 0.000000
0.188962 -0.324691 -0.221357 0.000000 0.000000 0.000000
-0.182026 -0.310974 -0.221293 0.000000 0.000000 0.000000
-0.166735 -0.310811 -0.218067 0.000000 0.000000 0.000000
0.167259 -0.311148 -0.219789 0.000000 0.000000 0.000000
0.180807 -0.308121 -0.220688 0.000000 0.000000 0.000000
0.188962 -0.312818 -0.216336 0.000000 0.000000 0.000000
-0.182833 -0.298540 -0.214776 0.000000 0.000000 0.000000
-0.169371 -0.299823 -0.215852 0.000000 0.000000 0.000000
0.167814 -0.298270 -0.214868 0.000000 0.000000 0.000000
0.178271 -0.297770 -0.214803 0.000000 0.000000 0.000000
0.187568 -0.301499 -0.216923 0.000000 0.000000 0.000000
-0.163769 -0.127759 -0.219504 0.000000 0.000000 0.000000
-0.147662 -0.129379 -0.221227 0.000000 0.000000 0.000000
-0.137173 -0.129379 -0.220680 0.000000 0.000000 0.000000
-0.121796 -0.128521 -0.219533 0.000000 0.000000 0.000000
-0.108317 -0.128474 -0.220401 0.000000 0.000000 0.000000
-0.092698 -0.129379 -0.219383 0.000000 0.000000 0.000000
-0.076070 -0.127738 -0.223259 0.000000 0.000000 0.000000
-0.063795 -0.128072 -0.219009 0.000000 0.000000 0.000000
-0.048461 -0.129379 -0.219704 0.000000 0.000000 0.000000
-0.030679 -0.127946 -0.221694 0.000000 0.000000 0.000000
-0.015666 -0.127627 -0.220439 0.000000 0.000000 0.000000
-0.002902 -0.129379 -0.220685 0.000000 0.000000 0.000000
0.014385 -0.128462 -0.219556 0.000000 0.000000 0.000000
0.029871 -0.128068 -0.219977 0.000000 0.000000 0.000000
0.044515 -0.129379 -0.221912 0.000000 0.000000 0.000000
0.061103 -0.128703 -0.219386 0.000000 0.000000 0.000000
0.076743 -0.128423 -0.220173 0.000000 0.000000 0.000000
0.089310 -0.129379 -0.219920 0.000000 0.000000 0.000000
0.103830 -0.129379 -0.217734 0.000000 0.000000 0.000000
0.116464 -0.126840 -0.218718 0.000000 0.000000 0.000000
0.134476 -0.129379 -0.221502 0.000000 0.000000 0.000000
0.148815 -0.129379 -0.221429 0.000000 0.000000 0.000000
0.160613 -0.129101 -0.220943 0.000000 0.000000 0.000000
-0.164736 -0.113898 -0.218759 0.000000 0.000000 0.000000
-0.120160 -0.116272 -0.219331 0.000000 0.000000 0.000000
-0.112408 -0.114978 -0.220895 0.000000 0.000000 0.000000
-0.073647 -0.117105 -0.220748 0.000000 0.000000 0.000000
-0.065894 -0.116441 -0.219124 0.000000 0.000000 0.000000
-0.027133 -0.117560 -0.219005 0.000000 0.000000 0.000000
-0.019381 -0.116675 -0.222598 0.000000 0.000000 0.000000
0.019381 -0.115882 -0.219151 0.000000 0.000000 0.000000
0.027133 -0.114795 -0.222028 0.000000 0.000000 0.000000
0.065894 -0.114001 -0.220832 0.000000 0.000000 0.000000
0.073647 -0.115876 -0.219760 0.000000 0.000000 0.000000
0.115883 -0.114876 -0.219145 0.000000 0.000000 0.000000
0.164736 -0.115023 -0.219934 0.000000 0.000000 0.000000
-0.161207 -0.105371 -0.221217 0.000000 0.000000 0.000000
-0.152800 -0.104979 -0.218000 0.000000 0.000000 0.000000
-0.136330 -0.104979 -0.220469 0.000000 0.000000 0.000000
-0.123710 -0.105254 -0.221679 0.000000 0.000000 0.000000
-0.107475 -0.105051 -0.219440 0.000000 0.000000 0.000000
-0.091994 -0.104979 -0.219694 0.000000 0.000000 0.000000
-0.079912 -0.104979 -0.223062 0.000000 0.000000 0.000000
-0.059942 -0.105411 -0.220667 0.000000 0.000000 0.000000
-0.047744 -0.104979 -0.219168 0.000000 0.000000 0.000000
-0.031978 -0.105219 -0.222674 0.000000 0.000000 0.000000
-0.013990 -0.104979 -0.218355 0.000000 0.000000 0.000000
-0.002985 -0.104979 -0.219692 0.000000 0.000000 0.000000
0.014688 -0.105226 -0.219717 0.000000 0.000000 0.000000
0.028116 -0.105528 -0.217971 0.000000 0.000000 0.000000
0.045785 -0.104979 -0.221186 0.000000 0.000000 0.000000
0.057731 -0.104979 -0.221627 0.000000 0.000000 0.000000
0.075775 -0.105441 -0.223914 0.000000 0.000000 0.000000
0.088385 -0.104979 -0.219723 0.000000 0.000000 0.000000
0.101694 -0.104979 -0.219695 0.000000 0.000000 0.000000
0.118593 -0.105554 -0.219838 0.000000 0.000000 0.000000
0.132130 -0.104979 -0.220096 0.000000 0.000000 0.000000
0.148575 -0.104979 -0.220226 0.000000 0.000000 0.000000
0.162140 -0.105304 -0.219255 0.000000 0.000000 0.000000
-0.182726 -0.396284 -0.212546 0.000000 0.000000 0.000000
-0.170856 -0.395482 -0.212090 0.000000 0.000000 0.000000
0.166000 -0.395221 -0.212060 0.000000 0.000000 0.000000
0.178092 -0.394425 -0.211608 0.000000 0.000000 0.000000
0.188267 -0.394648 -0.211743 0.000000 0.000000 0.000000
-0.181471 -0.385551 -0.207286 0.000000 0.000000 0.000000
-0.166398 -0.384172 -0.206682 0.000000 0.000000 0.000000
0.166408 -0.384495 -0.207729 0.000000 0.000000 0.000000
0.173750 -0.385263 -0.206399 0.000000 0.000000 0.000000
0.188557 -0.384234 -0.207749 0.000000 0.000000 0.000000
-0.184065 -0.372217 -0.203166 0.000000 0.000000 0.000000
-0.165936 -0.371684 -0.204548 0.000000 0.000000 0.000000
0.165371 -0.370834 -0.203818 0.000000 0.000000 0.000000
0.177868 -0.375143 -0.200646 0.000000 0.000000 0.000000
0.188052 -0.368087 -0.203015 0.000000 0.000000 0.000000
-0.188962 -0.355351 -0.204545 0.000000 0.000000 0.000000
-0.164736 -0.355787 -0.206202 0.000000 0.000000 0.000000
0.164736 -0.355545 -0.206681 0.000000 0.000000 0.000000
0.188962 -0.358510 -0.205644 0.000000 0.000000 0.000000
-0.188962 -0.339215 -0.205983 0.000000 0.000000 0.000000
-0.164736 -0.338008 -0.204152 0.000000 0.000000 0.000000
0.164736 -0.341403 -0.205217 0.000000 0.000000 0.000000
0.188962 -0.340719 -0.204023 0.000000 0.000000 0.000000
-0.188962 -0.325029 -0.205739 0.000000 0.000000 0.000000
-0.164736 -0.325474 -0.207991 0.000000 0.000000 0.000000
0.164736 -0.324930 -0.206283 0.000000 0.000000 0.000000
0.188962 -0.329777 -0.204672 0.000000 0.000000 0.000000
-0.188962 -0.309956 -0.205857 0.000000 0.000000 0.000000
-0.164736 -0.310473 -0.203713 0.000000 0.000000 0.000000
0.164736 -0.309146 -0.203779 0.000000 0.000000 0.000000
0.188962 -0.310699 -0.206936 0.000000 0.000000 0.000000
-0.183886 -0.294252 -0.208281 0.000000 0.000000 0.000000
-0.166219 -0.295350 -0.206427 0.000000 0.000000 0.000000
0.165141 -0.294714 -0.203900 0.000000 0.000000 0.000000
0.177792 -0.289944 -0.210355 0.000000 0.000000 0.000000
0.188891 -0.293799 -0.205780 0.000000 0.000000 0.000000
-0.184379 -0.283168 -0.204496 0.000000 0.000000 0.000000
-0.168503 -0.282265 -0.204893 0.000000 0.000000 0.000000
0.166515 -0.279133 -0.203419 0.000000 0.000000 0.000000
0.181190 -0.281123 -0.205340 0.000000 0.000000 0.000000
0.188962 -0.278403 -0.200716 0.000000 0.000000 0.000000
-0.180977 -0.269792 -0.198780 0.000000 0.000000 0.000000
-0.167630 -0.270852 -0.198656 0.000000 0.000000 0.000000
0.175708 -0.268379 -0.198095 0.000000 0.000000 0.000000
0.188904 -0.270673 -0.199352 0.000000 0.000000 0.000000
-0.164380 -0.126895 -0.203965 0.000000 0.000000 0.000000
-0.152382 -0.129379 -0.204343 0.000000 0.000000 0.000000
-0.135033 -0.129379 -0.204699 0.000000 0.000000 0.000000
-0.122249 -0.128899 -0.205990 0.000000 0.000000 0.000000
-0.108049 -0.127776 -0.205513 0.000000 0.000000 0.000000
-0.089451 -0.129379 -0.204521 0.000000 0.000000 0.000000
-0.076925 -0.127991 -0.204754 0.000000 0.000000 0.000000
-0.063306 -0.127660 -0.204060 0.000000 0.000000 0.000000
-0.047455 -0.129379 -0.203985 0.000000 0.000000 0.000000
-0.033133 -0.129355 -0.203417 0.000000 0.000000 0.000000
-0.015742 -0.128678 -0.205781 0.000000 0.000000 0.000000
-0.003270 -0.129379 -0.204847 0.000000 0.000000 0.000000
0.017592 -0.127397 -0.204748 0.000000 0.000000 0.000000
0.030398 -0.128471 -0.204408 0.000000 0.000000 0.000000
0.044608 -0.129379 -0.207224 0.000000 0.000000 0.000000
0.059418 -0.129138 -0.202575 0.000000 0.000000 0.000000
0.074761 -0.128073 -0.203879 0.000000 0.000000 0.000000
0.087980 -0.129379 -0.205645 0.000000 0.000000 0.000000
0.104727 -0.129379 -0.205741 0.000000 0.000000 0.000000
0.117440 -0.127625 -0.205234 0.000000 0.000000 0.000000
0.133981 -0.129379 -0.207030 0.000000 0.000000 0.000000
0.148446 -0.129379 -0.207494 0.000000 0.000000 0.000000
0.161560 -0.128303 -0.205856 0.000000 0.000000 0.000000
-0.164736 -0.114699 -0.206263 0.000000 0.000000 0.000000
-0.120160 -0.115724 -0.204246 0.000000 0.000000 0.000000
-0.112408 -0.114727 -0.204805 0.000000 0.000000 0.000000
-0.073647 -0.114986 -0.204269 0.000000 0.000000 0.000000
-0.065894 -0.114190 -0.205999 0.000000 0.000000 0.000000
-0.027133 -0.117297 -0.202747 0.000000 0.000000 0.000000
-0.019381 -0.116340 -0.202859 0.000000 0.000000 0.000000
0.019381 -0.113796 -0.206539 0.000000 0.000000 0.000000
0.027133 -0.116400 -0.203322 0.000000 0.000000 0.000000
0.065894 -0.115987 -0.204758 0.000000 0.000000 0.000000
0.073647 -0.114185 -0.203182 0.000000 0.000000 0.000000
0.115688 -0.114132 -0.203989 0.000000 0.000000 0.000000
0.164736 -0.112597 -0.206010 0.000000 0.000000 0.000000
-0.162178 -0.105465 -0.205100 0.000000 0.000000 0.000000
-0.151550 -0.104979 -0.205807 0.000000 0.000000 0.000000
-0.137499 -0.104979 -0.203804 0.000000 0.000000 0.000000
-0.123472 -0.105326 -0.205743 0.000000 0.000000 0.000000
-0.109140 -0.105441 -0.206206 0.000000 0.000000 0.000000
-0.091751 -0.104979 -0.206409 0.000000 0.000000 0.000000
-0.078349 -0.105164 -0.206626 0.000000 0.000000 0.000000
-0.060063 -0.104979 -0.209399 0.000000 0.000000 0.000000
-0.045128 -0.104979 -0.203904 0.000000 0.000000 0.000000
-0.031173 -0.105894 -0.207621 0.000000 0.000000 0.000000
-0.016624 -0.105487 -0.206468 0.000000 0.000000 0.000000
-0.002637 -0.104979 -0.204440 0.000000 0.000000 0.000000
0.014936 -0.105160 -0.207197 0.000000 0.000000 0.000000
0.028459 -0.105762 -0.204323 0.000000 0.000000 0.000000
0.045869 -0.104979 -0.206876 0.000000 0.000000 0.000000
0.061055 -0.105222 -0.205199 0.000000 0.000000 0.000000
0.076927 -0.105052 -0.206984 0.000000 0.000000 0.000000
0.087972 -0.104979 -0.203949 0.000000 0.000000 0.000000
0.104727 -0.104979 -0.204614 0.000000 0.000000 0.000000
0.116651 -0.105418 -0.203301 0.000000 0.000000 0.000000
0.130754 -0.104979 -0.207568 0.000000 0.000000 0.000000
0.148601 -0.104979 -0.204890 0.000000 0.000000 0.000000
0.161962 -0.105601 -0.204333 0.000000 0.000000 0.000000
-0.181686 -0.365647 -0.195176 0.000000 0.000000 0.000000
-0.170147 -0.367611 -0.196246 0.000000 0.000000 0.000000
0.166986 -0.365266 -0.195435 0.000000 0.000000 0.000000
0.177160 -0.364504 -0.194598 0.000000 0.000000 0.000000
0.188962 -0.362796 -0.197416 0.000000 0.000000 0.000000
-0.183666 -0.353623 -0.189986 0.000000 0.000000 0.000000
-0.168643 -0.355990 -0.190725 0.000000 0.000000 0.000000
0.165899 -0.354077 -0.191226 0.000000 0.000000 0.000000
0.177837 -0.352334 -0.187680 0.000000 0.000000 0.000000
0.188572 -0.355067 -0.192611 0.000000 0.000000 0.000000
-0.188698 -0.340239 -0.188494 0.000000 0.000000 0.000000
-0.165594 -0.340808 -0.188557 0.000000 0.000000 0.000000
0.164736 -0.340744 -0.191303 0.000000 0.000000 0.000000
0.180055 -0.346402 -0.184308 0.000000 0.000000 0.000000
0.188689 -0.343450 -0.190009 0.000000 0.000000 0.000000
-0.188962 -0.325369 -0.189440 0.000000 0.000000 0.000000
-0.164736 -0.327550 -0.190200 0.000000 0.000000 0.000000
0.164736 -0.326033 -0.191208 0.000000 0.000000 0.000000
0.188962 -0.327051 -0.189901 0.000000 0.000000 0.000000
-0.188962 -0.312677 -0.190434 0.000000 0.000000 0.000000
-0.164736 -0.309800 -0.188660 0.000000 0.000000 0.000000
0.164736 -0.310666 -0.190323 0.000000 0.000000 0.000000
0.188962 -0.310767 -0.192106 0.000000 0.000000 0.000000
-0.188962 -0.297271 -0.187730 0.000000 0.000000 0.000000
-0.164736 -0.296163 -0.189176 0.000000 0.000000 0.000000
0.164736 -0.296744 -0.191516 0.000000 0.000000 0.000000
0.188962 -0.296746 -0.188456 0.000000 0.000000 0.000000
-0.188962 -0.279904 -0.191776 0.000000 0.000000 0.000000
-0.164736 -0.278074 -0.192623 0.000000 0.000000 0.000000
0.164736 -0.279337 -0.189396 0.000000 0.000000 0.000000
0.188962 -0.280806 -0.192108 0.000000 0.000000 0.000000
-0.184392 -0.264400 -0.190502 0.000000 0.000000 0.000000
-0.165331 -0.264983 -0.191393 0.000000 0.000000 0.000000
0.165964 -0.264880 -0.194096 0.000000 0.000000 0.000000
0.178017 -0.263380 -0.195253 0.000000 0.000000 0.000000
0.188411 -0.265601 -0.190947 0.000000 0.000000 0.000000
-0.183371 -0.252728 -0.188678 0.000000 0.000000 0.000000
-0.166933 -0.250727 -0.186818 0.000000 0.000000 0.000000
0.166012 -0.253731 -0.187720 0.000000 0.000000 0.000000
0.178378 -0.249997 -0.187646 0.000000 0.000000 0.000000
0.188511 -0.251343 -0.187108 0.000000 0.000000 0.000000
-0.173828 -0.242551 -0.183294 0.000000 0.000000 0.000000
0.177680 -0.241763 -0.182965 0.000000 0.000000 0.000000
0.186676 -0.242152 -0.183186 0.000000 0.000000 0.000000
-0.163075 -0.128082 -0.189069 0.000000 0.000000 0.000000
-0.151045 -0.129379 -0.189311 0.000000 0.000000 0.000000
-0.137899 -0.129379 -0.190654 0.000000 0.000000 0.000000
-0.121598 -0.127515 -0.190694 0.000000 0.000000 0.000000
-0.108394 -0.128735 -0.190913 0.000000 0.000000 0.000000
-0.091328 -0.129379 -0.189854 0.000000 0.000000 0.000000
-0.078106 -0.129379 -0.190695 0.000000 0.000000 0.000000
-0.062264 -0.127573 -0.189155 0.000000 0.000000 0.000000
-0.048319 -0.129379 -0.189822 0.000000 0.000000 0.000000
-0.031856 -0.128855 -0.190100 0.000000 0.000000 0.000000
-0.016283 -0.128011 -0.189998 0.000000 0.000000 0.000000
-0.003021 -0.129379 -0.191553 0.000000 0.000000 0.000000
0.015715 -0.127453 -0.189086 0.000000 0.000000 0.000000
0.028644 -0.128197 -0.192877 0.000000 0.000000 0.000000
0.044477 -0.129379 -0.191691 0.000000 0.000000 0.000000
0.060518 -0.128508 -0.190165 0.000000 0.000000 0.000000
0.076612 -0.127532 -0.191357 0.000000 0.000000 0.000000
0.088646 -0.129379 -0.191129 0.000000 0.000000 0.000000
0.102297 -0.129379 -0.190190 0.000000 0.000000 0.000000
0.117782 -0.127988 -0.189541 0.000000 0.000000 0.000000
0.136549 -0.129379 -0.191090 0.000000 0.000000 0.000000
0.148433 -0.129379 -0.191237 0.000000 0.000000 0.000000
0.163009 -0.127048 -0.189384 0.000000 0.000000 0.000000
-0.164736 -0.113730 -0.191708 0.000000 0.000000 0.000000
-0.120160 -0.116105 -0.191684 0.000000 0.000000 0.000000
-0.112408 -0.116573 -0.192822 0.000000 0.000000 0.000000
-0.073647 -0.114640 -0.191708 0.000000 0.000000 0.000000
-0.065894 -0.114251 -0.189295 0.000000 0.000000 0.000000
-0.027133 -0.117149 -0.189544 0.000000 0.000000 0.000000
-0.019381 -0.112691 -0.191061 0.000000 0.000000 0.000000
0.019381 -0.117183 -0.190421 0.000000 0.000000 0.000000
0.027133 -0.115803 -0.191449 0.000000 0.000000 0.000000
0.065894 -0.117999 -0.191752 0.000000 0.000000 0.000000
0.073647 -0.115973 -0.189262 0.000000 0.000000 0.000000
0.115390 -0.115400 -0.191745 0.000000 0.000000 0.000000
0.164736 -0.114095 -0.189474 0.000000 0.000000 0.000000
-0.162639 -0.105395 -0.191472 0.000000 0.000000 0.000000
-0.150449 -0.104979 -0.189544 0.000000 0.000000 0.000000
-0.136895 -0.104979 -0.187138 0.000000 0.000000 0.000000
-0.122490 -0.106057 -0.192738 0.000000 0.000000 0.000000
-0.105812 -0.104979 -0.192779 0.000000 0.000000 0.000000
-0.091470 -0.104979 -0.190711 0.000000 0.000000 0.000000
-0.075977 -0.105455 -0.191467 0.000000 0.000000 0.000000
-0.062789 -0.105259 -0.191374 0.000000 0.000000 0.000000
-0.046307 -0.104979 -0.189140 0.000000 0.000000 0.000000
-0.034560 -0.105121 -0.189082 0.000000 0.000000 0.000000
-0.014112 -0.104979 -0.191021 0.000000 0.000000 0.000000
-0.002593 -0.104979 -0.190243 0.000000 0.000000 0.000000
0.014851 -0.105053 -0.190297 0.000000 0.000000 0.000000
0.032852 -0.105191 -0.190129 0.000000 0.000000 0.000000
0.042046 -0.104979 -0.193097 0.000000 0.000000 0.000000
0.059556 -0.105091 -0.188329 0.000000 0.000000 0.000000
0.076071 -0.105673 -0.190770 0.000000 0.000000 0.000000
0.087342 -0.104979 -0.192380 0.000000 0.000000 0.000000
0.103673 -0.104979 -0.190706 0.000000 0.000000 0.000000
0.119965 -0.105470 -0.190271 0.000000 0.000000 0.000000
0.130542 -0.104979 -0.190833 0.000000 0.000000 0.000000
0.150951 -0.104979 -0.191197 0.000000 0.000000 0.000000
0.161301 -0.105139 -0.190517 0.000000 0.000000 0.000000
-0.183870 -0.336385 -0.179022 0.000000 0.000000 0.000000
-0.167270 -0.336598 -0.180200 0.000000 0.000000 0.000000
0.168096 -0.335204 -0.178324 0.000000 0.000000 0.000000
0.177892 -0.338277 -0.179688 0.000000 0.000000 0.000000
0.188260 -0.337082 -0.180097 0.000000 0.000000 0.000000
-0.182360 -0.326087 -0.173330 0.000000 0.000000 0.000000
-0.166182 -0.325747 -0.175096 0.000000 0.000000 0.000000
0.165936 -0.325504 -0.174079 0.000000 0.000000 0.000000
0.177673 -0.324277 -0.171730 0.000000 0.000000 0.000000
0.188608 -0.324927 -0.174740 0.000000 0.000000 0.000000
-0.188962 -0.313119 -0.174010 0.000000 0.000000 0.000000
-0.164736 -0.313719 -0.174291 0.000000 0.000000 0.000000
0.164736 -0.310817 -0.173666 0.000000 0.000000 0.000000
0.175814 -0.317357 -0.167796 0.000000 0.000000 0.000000
0.188962 -0.309486 -0.174768 0.000000 0.000000 0.000000
-0.188962 -0.297308 -0.175175 0.000000 0.000000 0.000000
-0.164736 -0.296507 -0.176397 0.000000 0.000000 0.000000
0.164736 -0.294411 -0.174484 0.000000 0.000000 0.000000
0.188962 -0.295432 -0.176650 0.000000 0.000000 0.000000
-0.188962 -0.280261 -0.176231 0.000000 0.000000 0.000000
-0.164736 -0.278543 -0.176581 0.000000 0.000000 0.000000
0.164736 -0.279166 -0.175975 0.000000 0.000000 0.000000
0.188962 -0.276868 -0.174693 0.000000 0.000000 0.000000
-0.188962 -0.267779 -0.176081 0.000000 0.000000 0.000000
-0.164736 -0.262171 -0.176494 0.000000 0.000000 0.000000
0.164736 -0.265404 -0.173785 0.000000 0.000000 0.000000
0.188962 -0.266124 -0.175357 0.000000 0.000000 0.000000
-0.188962 -0.249954 -0.175093 0.000000 0.000000 0.000000
-0.164736 -0.251926 -0.175224 0.000000 0.000000 0.000000
0.164736 -0.251837 -0.174585 0.000000 0.000000 0.000000
0.188962 -0.247239 -0.175331 0.000000 0.000000 0.000000
-0.185148 -0.234470 -0.176119 0.000000 0.000000 0.000000
-0.165542 -0.236064 -0.175187 0.000000 0.000000 0.000000
0.165723 -0.235567 -0.173476 0.000000 0.000000 0.000000
0.178912 -0.234626 -0.178907 0.000000 0.000000 0.000000
0.188394 -0.236082 -0.175668 0.000000 0.000000 0.000000
-0.185185 -0.222533 -0.170968 0.000000 0.000000 0.000000
-0.168471 -0.221422 -0.170559 0.000000 0.000000 0.000000
0.167256 -0.221548 -0.170710 0.000000 0.000000 0.000000
0.178907 -0.223226 -0.172426 0.000000 0.000000 0.000000
0.187173 -0.222575 -0.171139 0.000000 0.000000 0.000000
-0.163352 -0.127731 -0.175809 0.000000 0.000000 0.000000
-0.151340 -0.129379 -0.174682 0.000000 0.000000 0.000000
-0.138020 -0.129379 -0.176548 0.000000 0.000000 0.000000
-0.122499 -0.127749 -0.176988 0.000000 0.000000 0.000000
-0.106437 -0.128778 -0.173052 0.000000 0.000000 0.000000
-0.091517 -0.129379 -0.174976 0.000000 0.000000 0.000000
-0.076083 -0.128300 -0.175589 0.000000 0.000000 0.000000
-0.063883 -0.127218 -0.175649 0.000000 0.000000 0.000000
-0.046388 -0.129379 -0.174212 0.000000 0.000000 0.000000
-0.030645 -0.128093 -0.175676 0.000000 0.000000 0.000000
-0.017154 -0.127067 -0.176062 0.000000 0.000000 0.000000
-0.002328 -0.129379 -0.175655 0.000000 0.000000 0.000000
0.016876 -0.127835 -0.174121 0.000000 0.000000 0.000000
0.028855 -0.127471 -0.175414 0.000000 0.000000 0.000000
0.043419 -0.129379 -0.176357 0.000000 0.000000 0.000000
0.062437 -0.128014 -0.173998 0.000000 0.000000 0.000000
0.075226 -0.128165 -0.173256 0.000000 0.000000 0.000000
0.090183 -0.129379 -0.176586 0.000000 0.000000 0.000000
0.103991 -0.129379 -0.175715 0.000000 0.000000 0.000000
0.118489 -0.127905 -0.173945 0.000000 0.000000 0.000000
0.132141 -0.129379 -0.174430 0.000000 0.000000 0.000000
0.148617 -0.129379 -0.174191 0.000000 0.000000 0.000000
0.161837 -0.127759 -0.174900 0.000000 0.000000 0.000000
-0.164736 -0.113769 -0.174520 0.000000 0.000000 0.000000
-0.120160 -0.115752 -0.176023 0.000000 0.000000 0.000000
-0.112408 -0.116510 -0.176332 0.000000 0.000000 0.000000
-0.073647 -0.115582 -0.175346 0.000000 0.000000 0.000000
-0.065894 -0.112112 -0.176563 0.000000 0.000000 0.000000
-0.027133 -0.114666 -0.175074 0.000000 0.000000 0.000000
-0.019381 -0.116456 -0.175413 0.000000 0.000000 0.000000
0.019381 -0.115554 -0.176101 0.000000 0.000000 0.000000
0.027133 -0.119127 -0.173850 0.000000 0.000000 0.000000
0.065894 -0.113499 -0.174197 0.000000 0.000000 0.000000
0.073647 -0.115431 -0.174278 0.000000 0.000000 0.000000
0.115144 -0.115871 -0.175467 0.000000 0.000000 0.000000
0.164736 -0.115872 -0.175363 0.000000 0.000000 0.000000
-0.163689 -0.106006 -0.173884 0.000000 0.000000 0.000000
-0.149210 -0.104979 -0.174585 0.000000 0.000000 0.000000
-0.138350 -0.104979 -0.173599 0.000000 0.000000 0.000000
-0.123042 -0.105338 -0.175904 0.000000 0.000000 0.000000
-0.106237 -0.105167 -0.176519 0.000000 0.000000 0.000000
-0.089865 -0.104979 -0.174607 0.000000 0.000000 0.000000
-0.077821 -0.105087 -0.177011 0.000000 0.000000 0.000000
-0.059887 -0.105074 -0.176606 0.000000 0.000000 0.000000
-0.047586 -0.104979 -0.173604 0.000000 0.000000 0.000000
-0.032440 -0.105096 -0.173897 0.000000 0.000000 0.000000
-0.014305 -0.105149 -0.176720 0.000000 0.000000 0.000000
-0.000511 -0.104979 -0.174533 0.000000 0.000000 0.000000
0.012815 -0.104984 -0.175230 0.000000 0.000000 0.000000
0.029281 -0.105412 -0.174307 0.000000 0.000000 0.000000
0.042963 -0.104979 -0.175445 0.000000 0.000000 0.000000
0.057169 -0.104979 -0.176568 0.000000 0.000000 0.000000
0.074818 -0.105708 -0.176450 0.000000 0.000000 0.000000
0.089440 -0.104979 -0.173628 0.000000 0.000000 0.000000
0.101874 -0.104979 -0.177420 0.000000 0.000000 0.000000
0.121448 -0.105496 -0.175065 0.000000 0.000000 0.000000
0.133882 -0.104979 -0.174685 0.000000 0.000000 0.000000
0.150274 -0.104979 -0.173768 0.000000 0.000000 0.000000
0.163350 -0.105574 -0.176212 0.000000 0.000000 0.000000
-0.183272 -0.309098 -0.164060 0.000000 0.000000 0.000000
-0.168104 -0.308713 -0.163529 0.000000 0.000000 0.000000
0.165708 -0.309825 -0.163813 0.000000 0.000000 0.000000
0.179443 -0.309212 -0.163165 0.000000 0.000000 0.000000
0.188170 -0.308178 -0.163233 0.000000 0.000000 0.000000
-0.182831 -0.295357 -0.157764 0.000000 0.000000 0.000000
-0.166772 -0.295662 -0.158504 0.000000 0.000000 0.000000
0.164959 -0.296172 -0.161061 0.000000 0.000000 0.000000
0.179285 -0.297077 -0.156267 0.000000 0.000000 0.000000
0.188379 -0.296984 -0.160135 0.000000 0.000000 0.000000
-0.188962 -0.279877 -0.159723 0.000000 0.000000 0.000000
-0.164736 -0.279009 -0.158640 0.000000 0.000000 0.000000
0.164736 -0.281776 -0.159094 0.000000 0.000000 0.000000
0.188962 -0.278280 -0.160946 0.000000 0.000000 0.000000
-0.188962 -0.266692 -0.160187 0.000000 0.000000 0.000000
-0.164736 -0.264512 -0.162370 0.000000 0.000000 0.000000
0.164736 -0.265486 -0.159211 0.000000 0.000000 0.000000
0.188962 -0.265708 -0.162953 0.000000 0.000000 0.000000
-0.188962 -0.249720 -0.157810 0.000000 0.000000 0.000000
-0.164736 -0.251279 -0.159994 0.000000 0.000000 0.000000
0.164736 -0.249977 -0.161609 0.000000 0.000000 0.000000
0.188962 -0.250797 -0.160460 0.000000 0.000000 0.000000
-0.188962 -0.234258 -0.159625 0.000000 0.000000 0.000000
-0.164736 -0.235440 -0.159907 0.000000 0.000000 0.000000
0.164736 -0.238092 -0.159237 0.000000 0.000000 0.000000
0.188962 -0.234240 -0.162156 0.000000 0.000000 0.000000
-0.188522 -0.219965 -0.161598 0.000000 0.000000 0.000000
-0.164736 -0.223057 -0.159444 0.000000 0.000000 0.000000
0.164973 -0.218737 -0.162051 0.000000 0.000000 0.000000
0.172799 -0.213919 -0.167136 0.000000 0.000000 0.000000
0.188616 -0.218441 -0.161016 0.000000 0.000000 0.000000
-0.184023 -0.205086 -0.160282 0.000000 0.000000 0.000000
-0.166848 -0.207761 -0.161616 0.000000 0.000000 0.000000
0.165349 -0.205210 -0.158439 0.000000 0.000000 0.000000
0.177501 -0.204955 -0.162039 0.000000 0.000000 0.000000
0.187940 -0.205360 -0.161145 0.000000 0.000000 0.000000
-0.177045 -0.193205 -0.155241 0.000000 0.000000 0.000000
-0.169962 -0.194342 -0.155720 0.000000 0.000000 0.000000
0.167036 -0.195370 -0.156591 0.000000 0.000000 0.000000
0.177625 -0.192890 -0.155181 0.000000 0.000000 0.000000
0.188162 -0.194049 -0.154707 0.000000 0.000000 0.000000
-0.162803 -0.128744 -0.160557 0.000000 0.000000 0.000000
-0.154346 -0.129379 -0.159103 0.000000 0.000000 0.000000
-0.140151 -0.129379 -0.161256 0.000000 0.000000 0.000000
-0.122091 -0.127958 -0.158581 0.000000 0.000000 0.000000
-0.109003 -0.127346 -0.160451 0.000000 0.000000 0.000000
-0.089502 -0.129379 -0.157819 0.000000 0.000000 0.000000
-0.077268 -0.128039 -0.160541 0.000000 0.000000 0.000000
-0.063127 -0.127733 -0.160093 0.000000 0.000000 0.000000
-0.046205 -0.129379 -0.160769 0.000000 0.000000 0.000000
-0.031867 -0.128467 -0.162351 0.000000 0.000000 0.000000
-0.015136 -0.128136 -0.161938 0.000000 0.000000 0.000000
-0.003219 -0.129379 -0.160169 0.000000 0.000000 0.000000
0.014482 -0.129245 -0.160645 0.000000 0.000000 0.000000
0.030162 -0.127939 -0.162777 0.000000 0.000000 0.000000
0.044586 -0.129379 -0.160111 0.000000 0.000000 0.000000
0.061729 -0.128032 -0.158798 0.000000 0.000000 0.000000
0.076477 -0.128075 -0.161140 0.000000 0.000000 0.000000
0.087642 -0.129379 -0.160331 0.000000 0.000000 0.000000
0.106143 -0.129379 -0.159202 0.000000 0.000000 0.000000
0.118198 -0.128439 -0.160591 0.000000 0.000000 0.000000
0.133342 -0.129379 -0.161365 0.000000 0.000000 0.000000
0.147891 -0.129379 -0.160598 0.000000 0.000000 0.000000
0.161426 -0.128163 -0.160652 0.000000 0.000000 0.000000
-0.164736 -0.116489 -0.160772 0.000000 0.000000 0.000000
-0.120160 -0.118995 -0.160386 0.000000 0.000000 0.000000
-0.112408 -0.116354 -0.161489 0.000000 0.000000 0.000000
-0.073647 -0.115019 -0.161221 0.000000 0.000000 0.000000
-0.065894 -0.112722 -0.158442 0.000000 0.000000 0.000000
-0.027133 -0.115571 -0.159598 0.000000 0.000000 0.000000
-0.019381 -0.115872 -0.160984 0.000000 0.000000 0.000000
0.019381 -0.113820 -0.158938 0.000000 0.000000 0.000000
0.027133 -0.115541 -0.158520 0.000000 0.000000 0.000000
0.065894 -0.114999 -0.158325 0.000000 0.000000 0.000000
0.073647 -0.115089 -0.159476 0.000000 0.000000 0.000000
0.115579 -0.115136 -0.159432 0.000000 0.000000 0.000000
0.164736 -0.115153 -0.161603 0.000000 0.000000 0.000000
-0.163189 -0.105581 -0.160259 0.000000 0.000000 0.000000
-0.148688 -0.104979 -0.160724 0.000000 0.000000 0.000000
-0.136402 -0.104979 -0.160308 0.000000 0.000000 0.000000
-0.121926 -0.105753 -0.159572 0.000000 0.000000 0.000000
-0.106594 -0.105312 -0.163262 0.000000 0.000000 0.000000
-0.091069 -0.104979 -0.160704 0.000000 0.000000 0.000000
-0.077969 -0.104979 -0.159652 0.000000 0.000000 0.000000
-0.058502 -0.105040 -0.160312 0.000000 0.000000 0.000000
-0.045379 -0.104979 -0.158604 0.000000 0.000000 0.000000
-0.032117 -0.105146 -0.160256 0.000000 0.000000 0.000000
-0.016375 -0.105349 -0.159546 0.000000 0.000000 0.000000
-0.001315 -0.104979 -0.162298 0.000000 0.000000 0.000000
0.013468 -0.105071 -0.160986 0.000000 0.000000 0.000000
0.031166 -0.105050 -0.162028 0.000000 0.000000 0.000000
0.042840 -0.104979 -0.158870 0.000000 0.000000 0.000000
0.060181 -0.105828 -0.158613 0.000000 0.000000 0.000000
0.075109 -0.105600 -0.158092 0.000000 0.000000 0.000000
0.089979 -0.104979 -0.160557 0.000000 0.000000 0.000000
0.102958 -0.104979 -0.160700 0.000000 0.000000 0.000000
0.118752 -0.105553 -0.158693 0.000000 0.000000 0.000000
0.131935 -0.104979 -0.159227 0.000000 0.000000 0.000000
0.148822 -0.104979 -0.162264 0.000000 0.000000 0.000000
0.161813 -0.105454 -0.159595 0.000000 0.000000 0.000000
-0.182589 -0.289085 -0.151605 0.000000 0.000000 0.000000
-0.169463 -0.289456 -0.151817 0.000000 0.000000 0.000000
0.169104 -0.289752 -0.152103 0.000000 0.000000 0.000000
0.178863 -0.289352 -0.151875 0.000000 0.000000 0.000000
-0.183591 -0.278635 -0.147539 0.000000 0.000000 0.000000
-0.167395 -0.278452 -0.146866 0.000000 0.000000 0.000000
0.166282 -0.278815 -0.147495 0.000000 0.000000 0.000000
0.178858 -0.281976 -0.147682 0.000000 0.000000 0.000000
0.188681 -0.279464 -0.149165 0.000000 0.000000 0.000000
-0.185824 -0.264290 -0.144529 0.000000 0.000000 0.000000
-0.166209 -0.266622 -0.144472 0.000000 0.000000 0.000000
0.164895 -0.265125 -0.146825 0.000000 0.000000 0.000000
0.180037 -0.269432 -0.140552 0.000000 0.000000 0.000000
0.188518 -0.263381 -0.143005 0.000000 0.000000 0.000000
-0.188962 -0.249137 -0.147410 0.000000 0.000000 0.000000
-0.164736 -0.251826 -0.144757 0.000000 0.000000 0.000000
0.164736 -0.251331 -0.146120 0.000000 0.000000 0.000000
0.188962 -0.248667 -0.146539 0.000000 0.000000 0.000000
-0.188962 -0.235302 -0.144901 0.000000 0.000000 0.000000
-0.164736 -0.236426 -0.144884 0.000000 0.000000 0.000000
0.164736 -0.235013 -0.144295 0.000000 0.000000 0.000000
0.188962 -0.235443 -0.144223 0.000000 0.000000 0.000000
-0.188962 -0.221695 -0.144062 0.000000 0.000000 0.000000
-0.164736 -0.220865 -0.143559 0.000000 0.000000 0.000000
0.164736 -0.219316 -0.148568 0.000000 0.000000 0.000000
0.188962 -0.221427 -0.145842 0.000000 0.000000 0.000000
-0.188962 -0.206432 -0.143285 0.000000 0.000000 0.000000
-0.164736 -0.204524 -0.145653 0.000000 0.000000 0.000000
0.164736 -0.202875 -0.143812 0.000000 0.000000 0.000000
0.188962 -0.205836 -0.145374 0.000000 0.000000 0.000000
-0.185445 -0.189984 -0.147539 0.000000 0.000000 0.000000
-0.165301 -0.188771 -0.146404 0.000000 0.000000 0.000000
0.164803 -0.191128 -0.146263 0.000000 0.000000 0.000000
0.178245 -0.185418 -0.150933 0.000000 0.000000 0.000000
0.188777 -0.192102 -0.144875 0.000000 0.000000 0.000000
-0.184665 -0.175975 -0.142982 0.000000 0.000000 0.000000
-0.165974 -0.174451 -0.142221 0.000000 0.000000 0.000000
0.165595 -0.177879 -0.143223 0.000000 0.000000 0.000000
0.177943 -0.174753 -0.144870 0.000000 0.000000 0.000000
0.188156 -0.176254 -0.143858 0.000000 0.000000 0.000000
-0.183594 -0.164572 -0.138964 0.000000 0.000000 0.000000
-0.169620 -0.164426 -0.138881 0.000000 0.000000 0.000000
0.167272 -0.163921 -0.138712 0.000000 0.000000 0.000000
0.178736 -0.164537 -0.139063 0.000000 0.000000 0.000000
0.186187 -0.167229 -0.140593 0.000000 0.000000 0.000000
-0.163538 -0.127917 -0.144495 0.000000 0.000000 0.000000
-0.151420 -0.129379 -0.144911 0.000000 0.000000 0.000000
-0.137454 -0.129379 -0.145944 0.000000 0.000000 0.000000
-0.122648 -0.127702 -0.145334 0.000000 0.000000 0.000000
-0.110481 -0.127384 -0.145552 0.000000 0.000000 0.000000
-0.092291 -0.129379 -0.143851 0.000000 0.000000 0.000000
-0.075307 -0.127214 -0.142944 0.000000 0.000000 0.000000
-0.063664 -0.127989 -0.145562 0.000000 0.000000 0.000000
-0.047406 -0.129379 -0.144695 0.000000 0.000000 0.000000
-0.031569 -0.128232 -0.147512 0.000000 0.000000 0.000000
-0.014980 -0.128729 -0.144830 0.000000 0.000000 0.000000
-0.001221 -0.129379 -0.143953 0.000000 0.000000 0.000000
0.017501 -0.128316 -0.144352 0.000000 0.000000 0.000000
0.029103 -0.128329 -0.145306 0.000000 0.000000 0.000000
0.042994 -0.129379 -0.145949 0.000000 0.000000 0.000000
0.058941 -0.129324 -0.144926 0.000000 0.000000 0.000000
0.076714 -0.127437 -0.145739 0.000000 0.000000 0.000000
0.089016 -0.129379 -0.144078 0.000000 0.000000 0.000000
0.105156 -0.129379 -0.144080 0.000000 0.000000 0.000000
0.116786 -0.126424 -0.144569 0.000000 0.000000 0.000000
0.134298 -0.129379 -0.147342 0.000000 0.000000 0.000000
0.146892 -0.129379 -0.145229 0.000000 0.000000 0.000000
0.161963 -0.128902 -0.147911 0.000000 0.000000 0.000000
-0.164736 -0.113178 -0.141801 0.000000 0.000000 0.000000
-0.120160 -0.114625 -0.146144 0.000000 0.000000 0.000000
-0.112408 -0.115157 -0.144874 0.000000 0.000000 0.000000
-0.073647 -0.118067 -0.141703 0.000000 0.000000 0.000000
-0.065894 -0.114396 -0.145081 0.000000 0.000000 0.000000
-0.027133 -0.117660 -0.146576 0.000000 0.000000 0.000000
-0.019381 -0.114629 -0.145398 0.000000 0.000000 0.000000
0.019381 -0.116610 -0.146593 0.000000 0.000000 0.000000
0.027133 -0.116452 -0.143807 0.000000 0.000000 0.000000
0.065894 -0.118808 -0.143601 0.000000 0.000000 0.000000
0.073647 -0.116471 -0.144613 0.000000 0.000000 0.000000
0.116989 -0.114713 -0.144511 0.000000 0.000000 0.000000
0.164736 -0.113516 -0.145724 0.000000 0.000000 0.000000
-0.161791 -0.104991 -0.143256 0.000000 0.000000 0.000000
-0.150815 -0.104979 -0.144166 0.000000 0.000000 0.000000
-0.136419 -0.104979 -0.144761 0.000000 0.000000 0.000000
-0.123353 -0.105501 -0.143382 0.000000 0.000000 0.000000
-0.108371 -0.105473 -0.144120 0.000000 0.000000 0.000000
-0.091329 -0.104979 -0.146739 0.000000 0.000000 0.000000
-0.077880 -0.105428 -0.144831 0.000000 0.000000 0.000000
-0.059965 -0.105100 -0.148922 0.000000 0.000000 0.000000
-0.046561 -0.104979 -0.145176 0.000000 0.000000 0.000000
-0.031124 -0.105425 -0.145069 0.000000 0.000000 0.000000
-0.015181 -0.105537 -0.146710 0.000000 0.000000 0.000000
-0.001513 -0.104979 -0.145071 0.000000 0.000000 0.000000
0.016188 -0.105330 -0.143766 0.000000 0.000000 0.000000
0.031193 -0.105137 -0.144609 0.000000 0.000000 0.000000
0.042633 -0.104979 -0.146945 0.000000 0.000000 0.000000
0.060463 -0.105089 -0.145104 0.000000 0.000000 0.000000
0.076714 -0.105297 -0.144532 0.000000 0.000000 0.000000
0.088210 -0.104979 -0.146240 0.000000 0.000000 0.000000
0.103803 -0.104979 -0.142610 0.000000 0.000000 0.000000
0.117002 -0.105761 -0.143500 0.000000 0.000000 0.000000
0.134358 -0.104979 -0.145548 0.000000 0.000000 0.000000
0.149977 -0.104979 -0.145990 0.000000 0.000000 0.000000
0.162525 -0.105432 -0.144917 0.000000 0.000000 0.000000
-0.185013 -0.260068 -0.135218 0.000000 0.000000 0.000000
-0.167654 -0.260334 -0.135887 0.000000 0.000000 0.000000
0.170202 -0.261151 -0.135844 0.000000 0.000000 0.000000
0.180396 -0.262122 -0.136396 0.000000 0.000000 0.000000
0.188962 -0.258321 -0.137337 0.000000 0.000000 0.000000
