ply
format ascii 1.0
element vertex 870
property float x
property float y
property float z
property float nx
property float ny
property float nz
end_header
-0.214296 0.066594 0.040981 0.000000 0.000000 0.000000
-0.204805 0.072478 0.039951 0.000000 0.000000 0.000000
-0.195377 0.076400 0.039619 0.000000 0.000000 0.000000
-0.101915 0.075395 0.036516 0.000000 0.000000 0.000000
0.085289 0.068456 0.043192 0.000000 0.000000 0.000000
0.094399 0.073697 0.045581 0.000000 0.000000 0.000000
-0.199542 0.079632 0.039855 0.000000 0.000000 0.000000
-0.191557 0.081453 0.038337 0.000000 0.000000 0.000000
-0.179593 0.086336 0.036648 0.000000 0.000000 0.000000
-0.162329 0.088462 0.047980 0.000000 0.000000 0.000000
-0.149856 0.088408 0.046533 0.000000 0.000000 0.000000
-0.139090 0.087568 0.043164 0.000000 0.000000 0.000000
-0.125387 0.086244 0.039880 0.000000 0.000000 0.000000
-0.112978 0.082831 0.038662 0.000000 0.000000 0.000000
-0.103487 0.079842 0.036953 0.000000 0.000000 0.000000
0.096739 0.078890 0.047846 0.000000 0.000000 0.000000
-0.165932 0.090840 0.048887 0.000000 0.000000 0.000000
-0.153343 0.092377 0.046601 0.000000 0.000000 0.000000
-0.138729 0.091664 0.044359 0.000000 0.000000 0.000000
-0.128464 0.091067 0.041882 0.000000 0.000000 0.000000
-0.242676 -0.080121 0.056280 0.000000 0.000000 0.000000
-0.233980 -0.081910 0.061168 0.000000 0.000000 0.000000
-0.216095 -0.081547 0.060490 0.000000 0.000000 0.000000
-0.206761 -0.079942 0.052809 0.000000 0.000000 0.000000
-0.252766 -0.069430 0.053550 0.000000 0.000000 0.000000
-0.245992 -0.074918 0.057799 0.000000 0.000000 0.000000
-0.203251 -0.071889 0.057254 0.000000 0.000000 0.000000
-0.195913 -0.066490 0.049997 0.000000 0.000000 0.000000
-0.263862 -0.054724 0.052031 0.000000 0.000000 0.000000
-0.258603 -0.060378 0.055313 0.000000 0.000000 0.000000
-0.199171 -0.064739 0.060460 0.000000 0.000000 0.000000
-0.192185 -0.059233 0.054933 0.000000 0.000000 0.000000
-0.269235 -0.044557 0.057927 0.000000 0.000000 0.000000
-0.187048 -0.050613 0.057759 0.000000 0.000000 0.000000
-0.181803 -0.044742 0.054196 0.000000 0.000000 0.000000
-0.278611 -0.032470 0.055634 0.000000 0.000000 0.000000
-0.274175 -0.037886 0.057422 0.000000 0.000000 0.000000
-0.175758 -0.035656 0.056091 0.000000 0.000000 0.000000
-0.170384 -0.027889 0.056466 0.000000 0.000000 0.000000
-0.284902 -0.023198 0.056435 0.000000 0.000000 0.000000
-0.229168 -0.016001 0.054871 0.000000 0.000000 0.000000
-0.218785 -0.017868 0.052929 0.000000 0.000000 0.000000
-0.167170 -0.023097 0.057058 0.000000 0.000000 0.000000
-0.236911 -0.008466 0.049606 0.000000 0.000000 0.000000
-0.230731 -0.006385 0.053862 0.000000 0.000000 0.000000
-0.218902 -0.005809 0.053076 0.000000 0.000000 0.000000
-0.002503 -0.008116 0.050606 0.000000 0.000000 0.000000
0.003758 -0.007016 0.051441 0.000000 0.000000 0.000000
0.015466 -0.002765 0.050264 0.000000 0.000000 0.000000
-0.236795 0.002474 0.049783 0.000000 0.000000 0.000000
-0.230613 0.005797 0.053931 0.000000 0.000000 0.000000
-0.220430 0.004329 0.054004 0.000000 0.000000 0.000000
-0.021215 0.005871 0.051435 0.000000 0.000000 0.000000
0.004373 0.005682 0.053098 0.000000 0.000000 0.000000
0.016725 0.006164 0.052647 0.000000 0.000000 0.000000
-0.251361 0.018574 0.055246 0.000000 0.000000 0.000000
-0.243726 0.019179 0.057379 0.000000 0.000000 0.000000
-0.230595 0.018414 0.054782 0.000000 0.000000 0.000000
-0.217119 0.016639 0.055950 0.000000 0.000000 0.000000
-0.204391 0.018850 0.056403 0.000000 0.000000 0.000000
-0.033287 0.020006 0.052089 0.000000 0.000000 0.000000
-0.023997 0.017304 0.054547 0.000000 0.000000 0.000000
0.003148 0.018258 0.058977 0.000000 0.000000 0.000000
0.018319 0.017963 0.056657 0.000000 0.000000 0.000000
0.024239 0.020529 0.058465 0.000000 0.000000 0.000000
-0.239705 0.029384 0.053997 0.000000 0.000000 0.000000
-0.230919 0.031577 0.056386 0.000000 0.000000 0.000000
-0.218182 0.029801 0.055403 0.000000 0.000000 0.000000
-0.207395 0.025931 0.052477 0.000000 0.000000 0.000000
-0.046793 0.034235 0.052905 0.000000 0.000000 0.000000
-0.035430 0.030242 0.055343 0.000000 0.000000 0.000000
-0.025674 0.028849 0.058954 0.000000 0.000000 0.000000
0.001522 0.025683 0.061041 0.000000 0.000000 0.000000
0.017696 0.028822 0.060917 0.000000 0.000000 0.000000
0.024710 0.029827 0.060696 0.000000 0.000000 0.000000
0.048076 0.032527 0.049608 0.000000 0.000000 0.000000
0.051303 0.034557 0.050837 0.000000 0.000000 0.000000
-0.238522 0.040164 0.051799 0.000000 0.000000 0.000000
-0.228497 0.043388 0.052912 0.000000 0.000000 0.000000
-0.221048 0.042455 0.052498 0.000000 0.000000 0.000000
-0.055894 0.046119 0.057587 0.000000 0.000000 0.000000
-0.048331 0.043343 0.056580 0.000000 0.000000 0.000000
-0.035896 0.040113 0.060175 0.000000 0.000000 0.000000
0.049335 0.039686 0.049636 0.000000 0.000000 0.000000
0.057502 0.046060 0.053981 0.000000 0.000000 0.000000
-0.224639 0.053307 0.056642 0.000000 0.000000 0.000000
-0.219550 0.055300 0.056666 0.000000 0.000000 0.000000
-0.207834 0.063573 0.062083 0.000000 0.000000 0.000000
-0.058246 0.053962 0.059096 0.000000 0.000000 0.000000
-0.053023 0.052496 0.059018 0.000000 0.000000 0.000000
0.059933 0.055309 0.057178 0.000000 0.000000 0.000000
0.067624 0.058824 0.057164 0.000000 0.000000 0.000000
0.077281 0.061110 0.051898 0.000000 0.000000 0.000000
-0.202597 0.071651 0.059809 0.000000 0.000000 0.000000
-0.192673 0.075350 0.060838 0.000000 0.000000 0.000000
0.072679 0.065856 0.055412 0.000000 0.000000 0.000000
0.082417 0.070448 0.056204 0.000000 0.000000 0.000000
0.093742 0.074314 0.053334 0.000000 0.000000 0.000000
-0.198378 0.077599 0.060695 0.000000 0.000000 0.000000
-0.189124 0.080954 0.057966 0.000000 0.000000 0.000000
-0.179056 0.084570 0.055693 0.000000 0.000000 0.000000
-0.168061 0.086772 0.052257 0.000000 0.000000 0.000000
0.087449 0.077388 0.058391 0.000000 0.000000 0.000000
0.094413 0.079454 0.056944 0.000000 0.000000 0.000000
0.107765 0.083768 0.055956 0.000000 0.000000 0.000000
0.118645 0.086193 0.059395 0.000000 0.000000 0.000000
-0.164613 0.091831 0.051231 0.000000 0.000000 0.000000
-0.152559 0.092209 0.050105 0.000000 0.000000 0.000000
0.120562 0.090923 0.061063 0.000000 0.000000 0.000000
-0.228297 -0.079643 0.064269 0.000000 0.000000 0.000000
-0.221504 -0.081144 0.063141 0.000000 0.000000 0.000000
-0.241700 -0.069441 0.066683 0.000000 0.000000 0.000000
-0.229868 -0.072368 0.068835 0.000000 0.000000 0.000000
-0.217333 -0.072171 0.067927 0.000000 0.000000 0.000000
-0.208257 -0.069072 0.065807 0.000000 0.000000 0.000000
-0.253537 -0.059312 0.065479 0.000000 0.000000 0.000000
-0.244343 -0.061277 0.071693 0.000000 0.000000 0.000000
-0.233894 -0.063993 0.074249 0.000000 0.000000 0.000000
-0.213178 -0.063361 0.073167 0.000000 0.000000 0.000000
-0.202590 -0.057885 0.070861 0.000000 0.000000 0.000000
-0.194908 -0.055769 0.065117 0.000000 0.000000 0.000000
-0.265031 -0.044816 0.066362 0.000000 0.000000 0.000000
-0.259204 -0.048430 0.070088 0.000000 0.000000 0.000000
-0.198498 -0.050387 0.074676 0.000000 0.000000 0.000000
-0.190480 -0.047108 0.068719 0.000000 0.000000 0.000000
-0.184340 -0.043596 0.063382 0.000000 0.000000 0.000000
-0.277287 -0.030094 0.064866 0.000000 0.000000 0.000000
-0.271553 -0.033393 0.070545 0.000000 0.000000 0.000000
-0.184783 -0.036335 0.073753 0.000000 0.000000 0.000000
-0.179962 -0.033640 0.069573 0.000000 0.000000 0.000000
0.177540 -0.028645 0.074909 0.000000 0.000000 0.000000
0.185937 -0.028418 0.073740 0.000000 0.000000 0.000000
0.200554 -0.027993 0.074255 0.000000 0.000000 0.000000
-0.280190 -0.024095 0.068351 0.000000 0.000000 0.000000
-0.275045 -0.025526 0.075074 0.000000 0.000000 0.000000
-0.173078 -0.023492 0.071474 0.000000 0.000000 0.000000
-0.169456 -0.022827 0.065325 0.000000 0.000000 0.000000
0.166500 -0.021748 0.073563 0.000000 0.000000 0.000000
0.175660 -0.023501 0.071842 0.000000 0.000000 0.000000
0.186275 -0.024147 0.070807 0.000000 0.000000 0.000000
0.200299 -0.024563 0.071843 0.000000 0.000000 0.000000
0.209126 -0.024515 0.073903 0.000000 0.000000 0.000000
-0.241479 0.018295 0.066072 0.000000 0.000000 0.000000
-0.230894 0.019264 0.068408 0.000000 0.000000 0.000000
-0.216251 0.018420 0.068237 0.000000 0.000000 0.000000
-0.207160 0.018480 0.064770 0.000000 0.000000 0.000000
0.001810 0.022422 0.064258 0.000000 0.000000 0.000000
0.013896 0.023768 0.063531 0.000000 0.000000 0.000000
-0.228983 0.025798 0.063458 0.000000 0.000000 0.000000
-0.222400 0.025164 0.064712 0.000000 0.000000 0.000000
-0.030991 0.034758 0.064862 0.000000 0.000000 0.000000
-0.027228 0.033899 0.064081 0.000000 0.000000 0.000000
0.003031 0.031682 0.068306 0.000000 0.000000 0.000000
0.017226 0.032735 0.065926 0.000000 0.000000 0.000000
0.025530 0.033009 0.065337 0.000000 0.000000 0.000000
-0.045627 0.047954 0.066032 0.000000 0.000000 0.000000
-0.032970 0.044763 0.069142 0.000000 0.000000 0.000000
-0.027498 0.039182 0.064556 0.000000 0.000000 0.000000
0.002855 0.041606 0.072334 0.000000 0.000000 0.000000
0.017274 0.043203 0.072086 0.000000 0.000000 0.000000
0.026093 0.044480 0.070192 0.000000 0.000000 0.000000
-0.218170 0.055742 0.066435 0.000000 0.000000 0.000000
-0.060343 0.059148 0.065899 0.000000 0.000000 0.000000
-0.047788 0.056650 0.070166 0.000000 0.000000 0.000000
-0.035212 0.052574 0.071999 0.000000 0.000000 0.000000
0.025980 0.052837 0.075268 0.000000 0.000000 0.000000
0.066786 0.060017 0.064184 0.000000 0.000000 0.000000
-0.213895 0.064532 0.064777 0.000000 0.000000 0.000000
-0.204172 0.068985 0.063825 0.000000 0.000000 0.000000
-0.195880 0.074774 0.062673 0.000000 0.000000 0.000000
-0.069542 0.071898 0.073170 0.000000 0.000000 0.000000
-0.063784 0.067347 0.070932 0.000000 0.000000 0.000000
0.072531 0.069576 0.066881 0.000000 0.000000 0.000000
0.079363 0.073597 0.069831 0.000000 0.000000 0.000000
0.091270 0.075679 0.063600 0.000000 0.000000 0.000000
0.080722 0.078781 0.072350 0.000000 0.000000 0.000000
0.095884 0.082163 0.065719 0.000000 0.000000 0.000000
0.106592 0.086309 0.071911 0.000000 0.000000 0.000000
0.122009 0.087753 0.064739 0.000000 0.000000 0.000000
0.134170 0.088324 0.070054 0.000000 0.000000 0.000000
0.145644 0.088390 0.074123 0.000000 0.000000 0.000000
0.109731 0.090254 0.073820 0.000000 0.000000 0.000000
0.123619 0.091347 0.066219 0.000000 0.000000 0.000000
0.132812 0.092121 0.069756 0.000000 0.000000 0.000000
0.143030 0.091969 0.073390 0.000000 0.000000 0.000000
-0.242145 -0.056142 0.076931 0.000000 0.000000 0.000000
-0.229883 -0.057834 0.079076 0.000000 0.000000 0.000000
-0.215475 -0.057437 0.078042 0.000000 0.000000 0.000000
-0.208068 -0.055196 0.077014 0.000000 0.000000 0.000000
-0.252947 -0.044548 0.079781 0.000000 0.000000 0.000000
-0.243668 -0.047450 0.082708 0.000000 0.000000 0.000000
-0.230461 -0.049408 0.084746 0.000000 0.000000 0.000000
-0.217457 -0.048124 0.085162 0.000000 0.000000 0.000000
-0.205042 -0.045896 0.082268 0.000000 0.000000 0.000000
-0.193892 -0.041533 0.078236 0.000000 0.000000 0.000000
0.165818 -0.040426 0.088177 0.000000 0.000000 0.000000
0.175980 -0.044584 0.086844 0.000000 0.000000 0.000000
0.185338 -0.044136 0.084549 0.000000 0.000000 0.000000
0.198180 -0.044518 0.085286 0.000000 0.000000 0.000000
0.209854 -0.042370 0.087382 0.000000 0.000000 0.000000
-0.267105 -0.031288 0.079163 0.000000 0.000000 0.000000
-0.256309 -0.035343 0.085064 0.000000 0.000000 0.000000
-0.248015 -0.039404 0.086772 0.000000 0.000000 0.000000
-0.204375 -0.039206 0.087322 0.000000 0.000000 0.000000
-0.191960 -0.034218 0.083068 0.000000 0.000000 0.000000
-0.182216 -0.029155 0.078222 0.000000 0.000000 0.000000
0.152698 -0.028075 0.086780 0.000000 0.000000 0.000000
0.161153 -0.032151 0.084509 0.000000 0.000000 0.000000
0.172441 -0.033113 0.079774 0.000000 0.000000 0.000000
0.187744 -0.035978 0.078809 0.000000 0.000000 0.000000
0.198162 -0.035292 0.078866 0.000000 0.000000 0.000000
0.211844 -0.033187 0.081428 0.000000 0.000000 0.000000
0.222044 -0.030822 0.085228 0.000000 0.000000 0.000000
-0.276148 -0.022331 0.077368 0.000000 0.000000 0.000000
-0.270907 -0.023386 0.082974 0.000000 0.000000 0.000000
-0.186402 -0.024898 0.087132 0.000000 0.000000 0.000000
-0.178953 -0.023567 0.080150 0.000000 0.000000 0.000000
0.150684 -0.023098 0.084322 0.000000 0.000000 0.000000
0.159021 -0.024419 0.079630 0.000000 0.000000 0.000000
0.168063 -0.026703 0.076606 0.000000 0.000000 0.000000
0.215581 -0.025146 0.077123 0.000000 0.000000 0.000000
0.224464 -0.024169 0.081598 0.000000 0.000000 0.000000
0.235288 -0.020308 0.087180 0.000000 0.000000 0.000000
0.002939 0.046540 0.078467 0.000000 0.000000 0.000000
0.013763 0.046086 0.078272 0.000000 0.000000 0.000000
0.027049 0.048842 0.078279 0.000000 0.000000 0.000000
-0.055122 0.063393 0.078391 0.000000 0.000000 0.000000
-0.045927 0.060905 0.078935 0.000000 0.000000 0.000000
-0.037529 0.057149 0.079251 0.000000 0.000000 0.000000
0.003227 0.054702 0.083901 0.000000 0.000000 0.000000
0.016277 0.056658 0.083022 0.000000 0.000000 0.000000
0.028394 0.056521 0.081873 0.000000 0.000000 0.000000
-0.071945 0.074701 0.080500 0.000000 0.000000 0.000000
-0.059186 0.071472 0.082316 0.000000 0.000000 0.000000
-0.048029 0.067471 0.082461 0.000000 0.000000 0.000000
-0.039374 0.066101 0.084252 0.000000 0.000000 0.000000
0.029700 0.066144 0.087020 0.000000 0.000000 0.000000
0.080432 0.076046 0.076488 0.000000 0.000000 0.000000
-0.081135 0.084260 0.086414 0.000000 0.000000 0.000000
-0.074897 0.080367 0.082927 0.000000 0.000000 0.000000
-0.059890 0.077889 0.086818 0.000000 0.000000 0.000000
0.083673 0.079703 0.078229 0.000000 0.000000 0.000000
0.093970 0.085028 0.082884 0.000000 0.000000 0.000000
0.109214 0.086964 0.078068 0.000000 0.000000 0.000000
0.119529 0.088141 0.082069 0.000000 0.000000 0.000000
0.130643 0.088982 0.087219 0.000000 0.000000 0.000000
0.147940 0.087854 0.079876 0.000000 0.000000 0.000000
0.159378 0.086596 0.084677 0.000000 0.000000 0.000000
0.168620 0.083380 0.086763 0.000000 0.000000 0.000000
0.113373 0.091676 0.078417 0.000000 0.000000 0.000000
0.119886 0.091604 0.081616 0.000000 0.000000 0.000000
0.135805 0.090979 0.079184 0.000000 0.000000 0.000000
0.146014 0.091865 0.079946 0.000000 0.000000 0.000000
0.157851 0.090799 0.081815 0.000000 0.000000 0.000000
0.187148 -0.067302 0.100388 0.000000 0.000000 0.000000
0.196784 -0.066875 0.100548 0.000000 0.000000 0.000000
0.165037 -0.055278 0.100766 0.000000 0.000000 0.000000
0.174510 -0.057420 0.096919 0.000000 0.000000 0.000000
0.185328 -0.059541 0.095284 0.000000 0.000000 0.000000
0.199621 -0.059392 0.096063 0.000000 0.000000 0.000000
0.208849 -0.055835 0.097179 0.000000 0.000000 0.000000
-0.242821 -0.040292 0.088723 0.000000 0.000000 0.000000
-0.229525 -0.041520 0.090414 0.000000 0.000000 0.000000
-0.214103 -0.041649 0.088981 0.000000 0.000000 0.000000
0.151703 -0.041015 0.100944 0.000000 0.000000 0.000000
0.159831 -0.045023 0.096479 0.000000 0.000000 0.000000
0.169898 -0.048642 0.092341 0.000000 0.000000 0.000000
0.179805 -0.049804 0.089340 0.000000 0.000000 0.000000
0.202333 -0.049802 0.089929 0.000000 0.000000 0.000000
0.212138 -0.047850 0.092864 0.000000 0.000000 0.000000
0.221568 -0.044033 0.096593 0.000000 0.000000 0.000000
-0.253561 -0.030521 0.090730 0.000000 0.000000 0.000000
-0.242552 -0.031891 0.094519 0.000000 0.000000 0.000000
-0.229223 -0.033225 0.096141 0.000000 0.000000 0.000000
-0.215076 -0.035163 0.093711 0.000000 0.000000 0.000000
-0.204246 -0.033605 0.091296 0.000000 0.000000 0.000000
-0.194855 -0.027971 0.090547 0.000000 0.000000 0.000000
0.148130 -0.033279 0.097085 0.000000 0.000000 0.000000
0.157752 -0.036728 0.090508 0.000000 0.000000 0.000000
0.217425 -0.038965 0.088627 0.000000 0.000000 0.000000
0.225071 -0.036229 0.092649 0.000000 0.000000 0.000000
0.236012 -0.029270 0.097833 0.000000 0.000000 0.000000
-0.263846 -0.022396 0.090522 0.000000 0.000000 0.000000
-0.256526 -0.024332 0.093817 0.000000 0.000000 0.000000
-0.244132 -0.024635 0.099269 0.000000 0.000000 0.000000
-0.225675 -0.026711 0.100682 0.000000 0.000000 0.000000
-0.218059 -0.025608 0.100786 0.000000 0.000000 0.000000
-0.202943 -0.023424 0.098440 0.000000 0.000000 0.000000
-0.191839 -0.023911 0.091878 0.000000 0.000000 0.000000
0.138385 -0.022898 0.098523 0.000000 0.000000 0.000000
0.146001 -0.025138 0.091099 0.000000 0.000000 0.000000
0.230624 -0.027074 0.089189 0.000000 0.000000 0.000000
0.239269 -0.024119 0.096466 0.000000 0.000000 0.000000
0.183086 0.016672 0.100346 0.000000 0.000000 0.000000
0.193019 0.018572 0.101020 0.000000 0.000000 0.000000
0.004128 0.060148 0.091102 0.000000 0.000000 0.000000
0.017465 0.061444 0.091897 0.000000 0.000000 0.000000
0.028235 0.063317 0.090338 0.000000 0.000000 0.000000
0.193553 0.062905 0.100995 0.000000 0.000000 0.000000
-0.060155 0.074460 0.090231 0.000000 0.000000 0.000000
-0.046207 0.072556 0.093415 0.000000 0.000000 0.000000
-0.041311 0.068600 0.089138 0.000000 0.000000 0.000000
0.004438 0.068975 0.096587 0.000000 0.000000 0.000000
0.018766 0.069704 0.096291 0.000000 0.000000 0.000000
0.031920 0.069873 0.094091 0.000000 0.000000 0.000000
0.177207 0.075739 0.094936 0.000000 0.000000 0.000000
0.184524 0.072949 0.097882 0.000000 0.000000 0.000000
-0.084857 0.086169 0.093659 0.000000 0.000000 0.000000
-0.071144 0.082392 0.096457 0.000000 0.000000 0.000000
-0.062334 0.079246 0.091930 0.000000 0.000000 0.000000
-0.047344 0.078751 0.096139 0.000000 0.000000 0.000000
0.034861 0.077539 0.099344 0.000000 0.000000 0.000000
0.098718 0.087373 0.090432 0.000000 0.000000 0.000000
0.108213 0.087635 0.095860 0.000000 0.000000 0.000000
0.123128 0.088636 0.092559 0.000000 0.000000 0.000000
0.135527 0.087994 0.093364 0.000000 0.000000 0.000000
0.146658 0.088472 0.098201 0.000000 0.000000 0.000000
0.163344 0.085893 0.089724 0.000000 0.000000 0.000000
0.172784 0.081536 0.092532 0.000000 0.000000 0.000000
0.182599 0.078052 0.094687 0.000000 0.000000 0.000000
-0.088297 0.090402 0.099075 0.000000 0.000000 0.000000
0.100056 0.090532 0.091488 0.000000 0.000000 0.000000
0.106967 0.092015 0.095529 0.000000 0.000000 0.000000
0.121024 0.091408 0.094653 0.000000 0.000000 0.000000
0.135181 0.092201 0.093163 0.000000 0.000000 0.000000
0.141534 0.091201 0.099602 0.000000 0.000000 0.000000
0.177154 -0.080068 0.113039 0.000000 0.000000 0.000000
0.185163 -0.079627 0.109499 0.000000 0.000000 0.000000
0.198955 -0.080299 0.111116 0.000000 0.000000 0.000000
0.165966 -0.068389 0.112997 0.000000 0.000000 0.000000
0.172576 -0.071440 0.109519 0.000000 0.000000 0.000000
0.186258 -0.073416 0.104600 0.000000 0.000000 0.000000
0.199058 -0.072756 0.105428 0.000000 0.000000 0.000000
0.209154 -0.071739 0.110967 0.000000 0.000000 0.000000
0.160902 -0.058635 0.109124 0.000000 0.000000 0.000000
0.168934 -0.062305 0.104156 0.000000 0.000000 0.000000
0.214053 -0.061985 0.106590 0.000000 0.000000 0.000000
0.221813 -0.055633 0.108927 0.000000 0.000000 0.000000
0.149377 -0.045215 0.110300 0.000000 0.000000 0.000000
0.156494 -0.050364 0.105444 0.000000 0.000000 0.000000
0.226160 -0.048441 0.106658 0.000000 0.000000 0.000000
0.232489 -0.043940 0.111579 0.000000 0.000000 0.000000
0.137880 -0.029831 0.110142 0.000000 0.000000 0.000000
0.144714 -0.036016 0.105647 0.000000 0.000000 0.000000
0.238501 -0.033875 0.108339 0.000000 0.000000 0.000000
-0.240895 -0.021258 0.102542 0.000000 0.000000 0.000000
-0.229888 -0.021431 0.104208 0.000000 0.000000 0.000000
-0.218134 -0.022906 0.102514 0.000000 0.000000 0.000000
0.135058 -0.024149 0.106893 0.000000 0.000000 0.000000
0.243763 -0.025437 0.105849 0.000000 0.000000 0.000000
0.247063 -0.023940 0.111807 0.000000 0.000000 0.000000
0.165198 0.016987 0.112278 0.000000 0.000000 0.000000
0.174331 0.017786 0.107771 0.000000 0.000000 0.000000
0.185609 0.017774 0.107513 0.000000 0.000000 0.000000
0.199976 0.018225 0.107499 0.000000 0.000000 0.000000
0.209643 0.017926 0.110470 0.000000 0.000000 0.000000
0.178095 0.025876 0.113071 0.000000 0.000000 0.000000
0.185648 0.027740 0.112183 0.000000 0.000000 0.000000
0.197031 0.025953 0.110762 0.000000 0.000000 0.000000
0.191984 0.062819 0.104050 0.000000 0.000000 0.000000
0.199011 0.057562 0.108282 0.000000 0.000000 0.000000
0.205946 0.052025 0.109631 0.000000 0.000000 0.000000
0.005478 0.072396 0.104966 0.000000 0.000000 0.000000
0.020614 0.073546 0.105724 0.000000 0.000000 0.000000
0.034156 0.074777 0.104432 0.000000 0.000000 0.000000
0.037159 0.075529 0.104558 0.000000 0.000000 0.000000
0.168216 0.075516 0.113069 0.000000 0.000000 0.000000
0.187681 0.069875 0.102967 0.000000 0.000000 0.000000
0.194923 0.067261 0.103600 0.000000 0.000000 0.000000
-0.096725 0.088245 0.107819 0.000000 0.000000 0.000000
-0.089679 0.086821 0.104036 0.000000 0.000000 0.000000
-0.073243 0.085982 0.107125 0.000000 0.000000 0.000000
-0.057244 0.084975 0.109214 0.000000 0.000000 0.000000
-0.052008 0.081814 0.106300 0.000000 0.000000 0.000000
0.006042 0.078313 0.109610 0.000000 0.000000 0.000000
0.020322 0.079073 0.109447 0.000000 0.000000 0.000000
0.032377 0.080461 0.109230 0.000000 0.000000 0.000000
0.038601 0.082737 0.111476 0.000000 0.000000 0.000000
0.120743 0.088216 0.107673 0.000000 0.000000 0.000000
0.128966 0.088347 0.111156 0.000000 0.000000 0.000000
0.150435 0.086050 0.104929 0.000000 0.000000 0.000000
0.159875 0.082909 0.108332 0.000000 0.000000 0.000000
0.169345 0.079398 0.113708 0.000000 0.000000 0.000000
-0.098110 0.092007 0.108067 0.000000 0.000000 0.000000
-0.089789 0.091191 0.103029 0.000000 0.000000 0.000000
-0.074385 0.090595 0.110518 0.000000 0.000000 0.000000
0.112572 0.091561 0.103237 0.000000 0.000000 0.000000
0.120312 0.092970 0.107006 0.000000 0.000000 0.000000
0.128453 0.092317 0.111213 0.000000 0.000000 0.000000
0.147705 0.090044 0.103479 0.000000 0.000000 0.000000
0.171608 -0.080988 0.121902 0.000000 0.000000 0.000000
0.203891 -0.081630 0.115159 0.000000 0.000000 0.000000
0.207609 -0.081130 0.119518 0.000000 0.000000 0.000000
0.163599 -0.070824 0.121678 0.000000 0.000000 0.000000
0.168203 -0.075932 0.119954 0.000000 0.000000 0.000000
0.214010 -0.073503 0.120418 0.000000 0.000000 0.000000
0.219754 -0.067547 0.123945 0.000000 0.000000 0.000000
0.152422 -0.055264 0.122080 0.000000 0.000000 0.000000
0.157223 -0.061012 0.119695 0.000000 0.000000 0.000000
0.224328 -0.060244 0.122323 0.000000 0.000000 0.000000
0.145955 -0.045964 0.122019 0.000000 0.000000 0.000000
0.229582 -0.051588 0.119282 0.000000 0.000000 0.000000
0.234986 -0.044892 0.121846 0.000000 0.000000 0.000000
0.136653 -0.032924 0.123210 0.000000 0.000000 0.000000
0.140818 -0.038970 0.123273 0.000000 0.000000 0.000000
0.240761 -0.036100 0.120057 0.000000 0.000000 0.000000
0.245052 -0.029116 0.117024 0.000000 0.000000 0.000000
0.131264 -0.024002 0.119134 0.000000 0.000000 0.000000
0.178864 -0.017444 0.123897 0.000000 0.000000 0.000000
0.186467 -0.015860 0.118451 0.000000 0.000000 0.000000
0.199965 -0.017312 0.122395 0.000000 0.000000 0.000000
0.249465 -0.023580 0.119804 0.000000 0.000000 0.000000
0.178569 -0.007248 0.124548 0.000000 0.000000 0.000000
0.186658 -0.008401 0.118517 0.000000 0.000000 0.000000
0.197884 -0.007573 0.120984 0.000000 0.000000 0.000000
0.178344 0.005061 0.124948 0.000000 0.000000 0.000000
0.184128 0.006761 0.119480 0.000000 0.000000 0.000000
0.198946 0.004931 0.121831 0.000000 0.000000 0.000000
0.164035 0.019689 0.121788 0.000000 0.000000 0.000000
0.173396 0.017433 0.121017 0.000000 0.000000 0.000000
0.185970 0.017237 0.120630 0.000000 0.000000 0.000000
0.197735 0.017686 0.121096 0.000000 0.000000 0.000000
0.211623 0.018976 0.121251 0.000000 0.000000 0.000000
0.219668 0.017782 0.124320 0.000000 0.000000 0.000000
0.175437 0.029631 0.121939 0.000000 0.000000 0.000000
0.186167 0.031495 0.119725 0.000000 0.000000 0.000000
0.199241 0.030101 0.120699 0.000000 0.000000 0.000000
0.208648 0.026100 0.121852 0.000000 0.000000 0.000000
0.179010 0.041930 0.123783 0.000000 0.000000 0.000000
0.186205 0.043338 0.121934 0.000000 0.000000 0.000000
0.197341 0.041623 0.122934 0.000000 0.000000 0.000000
0.179307 0.061902 0.125657 0.000000 0.000000 0.000000
0.187344 0.058937 0.124176 0.000000 0.000000 0.000000
0.196599 0.053986 0.120206 0.000000 0.000000 0.000000
0.174858 0.070689 0.119757 0.000000 0.000000 0.000000
0.182729 0.067640 0.123186 0.000000 0.000000 0.000000
-0.110512 0.088118 0.123256 0.000000 0.000000 0.000000
-0.102713 0.088612 0.118875 0.000000 0.000000 0.000000
-0.083060 0.088416 0.121160 0.000000 0.000000 0.000000
-0.075653 0.087979 0.120583 0.000000 0.000000 0.000000
-0.061252 0.087097 0.118369 0.000000 0.000000 0.000000
0.006469 0.083188 0.122057 0.000000 0.000000 0.000000
0.020870 0.083899 0.121318 0.000000 0.000000 0.000000
0.028012 0.084906 0.119183 0.000000 0.000000 0.000000
0.039724 0.085890 0.121990 0.000000 0.000000 0.000000
0.136272 0.086350 0.120311 0.000000 0.000000 0.000000
0.143050 0.083665 0.124519 0.000000 0.000000 0.000000
0.163990 0.079585 0.115532 0.000000 0.000000 0.000000
0.167861 0.077683 0.118245 0.000000 0.000000 0.000000
-0.109306 0.092322 0.122468 0.000000 0.000000 0.000000
-0.104068 0.092243 0.119926 0.000000 0.000000 0.000000
-0.083767 0.092442 0.119654 0.000000 0.000000 0.000000
-0.076584 0.091636 0.120277 0.000000 0.000000 0.000000
-0.063999 0.091054 0.121935 0.000000 0.000000 0.000000
0.133167 0.090316 0.117268 0.000000 0.000000 0.000000
0.169028 -0.080728 0.132499 0.000000 0.000000 0.000000
0.210389 -0.080897 0.135537 0.000000 0.000000 0.000000
0.162507 -0.070758 0.134382 0.000000 0.000000 0.000000
0.167481 -0.077595 0.134996 0.000000 0.000000 0.000000
0.215212 -0.074497 0.133327 0.000000 0.000000 0.000000
0.219581 -0.068476 0.130437 0.000000 0.000000 0.000000
0.151114 -0.054814 0.130147 0.000000 0.000000 0.000000
0.155991 -0.061306 0.134665 0.000000 0.000000 0.000000
0.226225 -0.058478 0.133873 0.000000 0.000000 0.000000
0.146319 -0.047474 0.133772 0.000000 0.000000 0.000000
0.231100 -0.051140 0.136360 0.000000 0.000000 0.000000
0.235468 -0.045117 0.133173 0.000000 0.000000 0.000000
-0.152062 -0.030359 0.138790 0.000000 0.000000 0.000000
-0.140854 -0.030692 0.135566 0.000000 0.000000 0.000000
-0.126021 -0.033537 0.136621 0.000000 0.000000 0.000000
-0.113264 -0.031184 0.137452 0.000000 0.000000 0.000000
-0.104662 -0.027879 0.138561 0.000000 0.000000 0.000000
0.137195 -0.034071 0.134598 0.000000 0.000000 0.000000
0.141119 -0.039586 0.137628 0.000000 0.000000 0.000000
0.241485 -0.036357 0.135136 0.000000 0.000000 0.000000
0.246282 -0.029330 0.134884 0.000000 0.000000 0.000000
-0.162686 -0.022100 0.138167 0.000000 0.000000 0.000000
-0.151495 -0.023611 0.133640 0.000000 0.000000 0.000000
-0.138975 -0.022983 0.129894 0.000000 0.000000 0.000000
-0.124769 -0.024090 0.130158 0.000000 0.000000 0.000000
-0.113927 -0.023711 0.131923 0.000000 0.000000 0.000000
-0.101181 -0.023148 0.136714 0.000000 0.000000 0.000000
0.130132 -0.023793 0.133765 0.000000 0.000000 0.000000
0.177891 -0.016987 0.134864 0.000000 0.000000 0.000000
0.180595 -0.018133 0.139461 0.000000 0.000000 0.000000
0.202424 -0.017113 0.133599 0.000000 0.000000 0.000000
0.249913 -0.024027 0.134158 0.000000 0.000000 0.000000
0.177881 -0.007629 0.133323 0.000000 0.000000 0.000000
0.180344 -0.004300 0.139137 0.000000 0.000000 0.000000
0.202139 -0.008412 0.133780 0.000000 0.000000 0.000000
0.177573 0.005505 0.132808 0.000000 0.000000 0.000000
0.180629 0.006215 0.139492 0.000000 0.000000 0.000000
0.202010 0.005398 0.133719 0.000000 0.000000 0.000000
0.163581 0.018442 0.134976 0.000000 0.000000 0.000000
0.173305 0.017360 0.132872 0.000000 0.000000 0.000000
0.185193 0.017756 0.135943 0.000000 0.000000 0.000000
0.198690 0.017859 0.133803 0.000000 0.000000 0.000000
0.213173 0.018763 0.133088 0.000000 0.000000 0.000000
0.219757 0.017127 0.133895 0.000000 0.000000 0.000000
0.175125 0.029889 0.133406 0.000000 0.000000 0.000000
0.186483 0.033156 0.133207 0.000000 0.000000 0.000000
0.199934 0.031712 0.133493 0.000000 0.000000 0.000000
0.208344 0.027449 0.132266 0.000000 0.000000 0.000000
0.178548 0.040046 0.134069 0.000000 0.000000 0.000000
0.185835 0.044678 0.134185 0.000000 0.000000 0.000000
0.196931 0.044278 0.132543 0.000000 0.000000 0.000000
0.178809 0.054301 0.138251 0.000000 0.000000 0.000000
0.186908 0.055037 0.132100 0.000000 0.000000 0.000000
0.152131 0.075025 0.135099 0.000000 0.000000 0.000000
0.158889 0.072479 0.137294 0.000000 0.000000 0.000000
0.183840 0.064077 0.128357 0.000000 0.000000 0.000000
-0.122814 0.086959 0.137267 0.000000 0.000000 0.000000
-0.113982 0.087607 0.131399 0.000000 0.000000 0.000000
-0.095890 0.087912 0.137976 0.000000 0.000000 0.000000
-0.090876 0.088161 0.133974 0.000000 0.000000 0.000000
-0.070502 0.088275 0.134955 0.000000 0.000000 0.000000
-0.066292 0.087743 0.131476 0.000000 0.000000 0.000000
0.008259 0.086737 0.135049 0.000000 0.000000 0.000000
0.016851 0.086965 0.134696 0.000000 0.000000 0.000000
0.026443 0.086970 0.132594 0.000000 0.000000 0.000000
0.041823 0.087441 0.132783 0.000000 0.000000 0.000000
0.148973 0.081338 0.130587 0.000000 0.000000 0.000000
0.154873 0.079710 0.133793 0.000000 0.000000 0.000000
-0.119831 0.090255 0.132952 0.000000 0.000000 0.000000
-0.113841 0.091489 0.130732 0.000000 0.000000 0.000000
-0.095224 0.092056 0.136167 0.000000 0.000000 0.000000
-0.089379 0.092438 0.132876 0.000000 0.000000 0.000000
-0.071641 0.092278 0.135395 0.000000 0.000000 0.000000
-0.066066 0.091577 0.132810 0.000000 0.000000 0.000000
0.008045 0.090661 0.134708 0.000000 0.000000 0.000000
0.026710 0.091379 0.134076 0.000000 0.000000 0.000000
0.042888 0.091738 0.134692 0.000000 0.000000 0.000000
0.175995 -0.081574 0.145310 0.000000 0.000000 0.000000
0.184471 -0.080501 0.150851 0.000000 0.000000 0.000000
0.204499 -0.082164 0.144795 0.000000 0.000000 0.000000
0.205978 -0.079167 0.146204 0.000000 0.000000 0.000000
0.165124 -0.069357 0.145031 0.000000 0.000000 0.000000
0.171156 -0.073097 0.148709 0.000000 0.000000 0.000000
0.184523 -0.078565 0.152545 0.000000 0.000000 0.000000
0.202771 -0.076001 0.151357 0.000000 0.000000 0.000000
0.212192 -0.071308 0.146637 0.000000 0.000000 0.000000
-0.138717 -0.054425 0.151742 0.000000 0.000000 0.000000
-0.124967 -0.056293 0.152447 0.000000 0.000000 0.000000
-0.117012 -0.053352 0.151938 0.000000 0.000000 0.000000
0.158955 -0.059990 0.146904 0.000000 0.000000 0.000000
0.167106 -0.065832 0.152054 0.000000 0.000000 0.000000
0.215840 -0.063945 0.150707 0.000000 0.000000 0.000000
0.222854 -0.059260 0.145071 0.000000 0.000000 0.000000
-0.160758 -0.041628 0.152793 0.000000 0.000000 0.000000
-0.149974 -0.045684 0.149301 0.000000 0.000000 0.000000
-0.139075 -0.045680 0.145780 0.000000 0.000000 0.000000
-0.125798 -0.046591 0.145704 0.000000 0.000000 0.000000
-0.114728 -0.046093 0.147813 0.000000 0.000000 0.000000
-0.102887 -0.042788 0.151195 0.000000 0.000000 0.000000
0.148915 -0.047420 0.145930 0.000000 0.000000 0.000000
0.155074 -0.052271 0.151197 0.000000 0.000000 0.000000
0.227814 -0.050141 0.148936 0.000000 0.000000 0.000000
0.233940 -0.043675 0.145971 0.000000 0.000000 0.000000
-0.163500 -0.033071 0.147962 0.000000 0.000000 0.000000
-0.152153 -0.036026 0.143174 0.000000 0.000000 0.000000
-0.123128 -0.039500 0.140936 0.000000 0.000000 0.000000
-0.111029 -0.036910 0.142455 0.000000 0.000000 0.000000
-0.098359 -0.033711 0.146959 0.000000 0.000000 0.000000
-0.090636 -0.028880 0.149225 0.000000 0.000000 0.000000
0.137412 -0.031471 0.145747 0.000000 0.000000 0.000000
0.142266 -0.037726 0.146824 0.000000 0.000000 0.000000
0.239672 -0.034825 0.147619 0.000000 0.000000 0.000000
0.245483 -0.029188 0.141085 0.000000 0.000000 0.000000
-0.175773 -0.023005 0.150208 0.000000 0.000000 0.000000
-0.167417 -0.025117 0.144028 0.000000 0.000000 0.000000
-0.095090 -0.025342 0.141980 0.000000 0.000000 0.000000
-0.087806 -0.023171 0.146594 0.000000 0.000000 0.000000
0.132354 -0.022283 0.150449 0.000000 0.000000 0.000000
0.186841 -0.017285 0.142789 0.000000 0.000000 0.000000
0.195243 -0.016206 0.142343 0.000000 0.000000 0.000000
0.248400 -0.023351 0.146331 0.000000 0.000000 0.000000
0.187616 -0.005503 0.142894 0.000000 0.000000 0.000000
0.195050 -0.009096 0.142490 0.000000 0.000000 0.000000
0.187080 0.005630 0.142933 0.000000 0.000000 0.000000
0.196441 0.005150 0.141762 0.000000 0.000000 0.000000
0.164247 0.017422 0.145108 0.000000 0.000000 0.000000
0.171999 0.018665 0.147517 0.000000 0.000000 0.000000
0.185786 0.017338 0.145872 0.000000 0.000000 0.000000
0.198732 0.017409 0.147060 0.000000 0.000000 0.000000
0.211747 0.018664 0.145751 0.000000 0.000000 0.000000
0.174941 0.026222 0.144023 0.000000 0.000000 0.000000
0.185754 0.028559 0.145963 0.000000 0.000000 0.000000
0.196634 0.029537 0.144123 0.000000 0.000000 0.000000
0.205770 0.026871 0.142246 0.000000 0.000000 0.000000
0.190540 0.041596 0.141074 0.000000 0.000000 0.000000
0.194233 0.040148 0.141700 0.000000 0.000000 0.000000
0.165069 0.062255 0.145982 0.000000 0.000000 0.000000
0.173332 0.056545 0.147372 0.000000 0.000000 0.000000
0.181149 0.053393 0.144236 0.000000 0.000000 0.000000
-0.135369 0.075648 0.151638 0.000000 0.000000 0.000000
-0.130870 0.076363 0.150611 0.000000 0.000000 0.000000
0.162601 0.068471 0.142839 0.000000 0.000000 0.000000
0.168551 0.065402 0.146360 0.000000 0.000000 0.000000
-0.133481 0.079953 0.151097 0.000000 0.000000 0.000000
-0.125919 0.083102 0.145259 0.000000 0.000000 0.000000
-0.107322 0.085684 0.152485 0.000000 0.000000 0.000000
-0.100301 0.086700 0.148168 0.000000 0.000000 0.000000
-0.085431 0.088489 0.148087 0.000000 0.000000 0.000000
-0.075349 0.088043 0.145732 0.000000 0.000000 0.000000
0.008464 0.087925 0.147558 0.000000 0.000000 0.000000
0.011600 0.088427 0.145383 0.000000 0.000000 0.000000
0.026305 0.088333 0.146858 0.000000 0.000000 0.000000
0.046463 0.088326 0.148073 0.000000 0.000000 0.000000
0.049895 0.089185 0.149828 0.000000 0.000000 0.000000
-0.099396 0.090785 0.145565 0.000000 0.000000 0.000000
-0.082616 0.091594 0.151364 0.000000 0.000000 0.000000
-0.076469 0.092134 0.144378 0.000000 0.000000 0.000000
0.009352 0.092979 0.147851 0.000000 0.000000 0.000000
0.011460 0.091922 0.146307 0.000000 0.000000 0.000000
0.028869 0.092207 0.148342 0.000000 0.000000 0.000000
0.046221 0.092581 0.146049 0.000000 0.000000 0.000000
0.050391 0.091054 0.151616 0.000000 0.000000 0.000000
-0.147485 -0.066543 0.164415 0.000000 0.000000 0.000000
-0.136745 -0.070801 0.162917 0.000000 0.000000 0.000000
-0.126302 -0.071242 0.162575 0.000000 0.000000 0.000000
-0.117244 -0.070700 0.164910 0.000000 0.000000 0.000000
0.176459 -0.069273 0.156149 0.000000 0.000000 0.000000
0.184665 -0.072324 0.156621 0.000000 0.000000 0.000000
0.197428 -0.070111 0.157916 0.000000 0.000000 0.000000
0.207631 -0.067363 0.155306 0.000000 0.000000 0.000000
-0.150896 -0.059678 0.161196 0.000000 0.000000 0.000000
-0.139181 -0.059962 0.155793 0.000000 0.000000 0.000000
-0.125624 -0.061986 0.156339 0.000000 0.000000 0.000000
-0.113603 -0.060147 0.158764 0.000000 0.000000 0.000000
-0.104825 -0.057400 0.162610 0.000000 0.000000 0.000000
0.162388 -0.055983 0.156722 0.000000 0.000000 0.000000
0.174033 -0.061463 0.160808 0.000000 0.000000 0.000000
0.185330 -0.062665 0.163559 0.000000 0.000000 0.000000
0.199008 -0.062069 0.163161 0.000000 0.000000 0.000000
0.210448 -0.058214 0.160681 0.000000 0.000000 0.000000
0.218792 -0.056674 0.154883 0.000000 0.000000 0.000000
-0.164973 -0.045791 0.161515 0.000000 0.000000 0.000000
-0.152314 -0.052178 0.155894 0.000000 0.000000 0.000000
-0.109041 -0.052116 0.154870 0.000000 0.000000 0.000000
-0.097751 -0.046033 0.158764 0.000000 0.000000 0.000000
-0.092156 -0.044136 0.163403 0.000000 0.000000 0.000000
0.151421 -0.041903 0.158528 0.000000 0.000000 0.000000
0.158036 -0.047996 0.160151 0.000000 0.000000 0.000000
0.168624 -0.051530 0.165745 0.000000 0.000000 0.000000
0.214973 -0.051157 0.163574 0.000000 0.000000 0.000000
0.223511 -0.047318 0.159082 0.000000 0.000000 0.000000
0.232000 -0.040429 0.155569 0.000000 0.000000 0.000000
-0.175566 -0.032147 0.160261 0.000000 0.000000 0.000000
-0.170022 -0.035001 0.156042 0.000000 0.000000 0.000000
-0.086671 -0.034862 0.160313 0.000000 0.000000 0.000000
0.139073 -0.028781 0.155961 0.000000 0.000000 0.000000
0.145606 -0.033515 0.160028 0.000000 0.000000 0.000000
0.156073 -0.039955 0.165855 0.000000 0.000000 0.000000
0.229992 -0.037434 0.162031 0.000000 0.000000 0.000000
0.235771 -0.032298 0.159865 0.000000 0.000000 0.000000
-0.184581 -0.024342 0.165593 0.000000 0.000000 0.000000
-0.182153 -0.023172 0.159077 0.000000 0.000000 0.000000
-0.081408 -0.024140 0.154931 0.000000 0.000000 0.000000
-0.076257 -0.023494 0.162278 0.000000 0.000000 0.000000
0.030226 -0.021392 0.165584 0.000000 0.000000 0.000000
0.042743 -0.021617 0.164819 0.000000 0.000000 0.000000
0.052467 -0.021699 0.165639 0.000000 0.000000 0.000000
0.136643 -0.023270 0.158839 0.000000 0.000000 0.000000
0.141781 -0.026894 0.162483 0.000000 0.000000 0.000000
0.241074 -0.024331 0.161714 0.000000 0.000000 0.000000
0.246281 -0.021698 0.155650 0.000000 0.000000 0.000000
-0.147003 0.017532 0.165398 0.000000 0.000000 0.000000
-0.137747 0.018312 0.163463 0.000000 0.000000 0.000000
-0.126472 0.018842 0.163254 0.000000 0.000000 0.000000
-0.115459 0.017477 0.164619 0.000000 0.000000 0.000000
0.176186 0.017463 0.156202 0.000000 0.000000 0.000000
0.186982 0.019695 0.157298 0.000000 0.000000 0.000000
0.198457 0.018787 0.156682 0.000000 0.000000 0.000000
0.208372 0.017030 0.154460 0.000000 0.000000 0.000000
-0.144351 0.061735 0.164735 0.000000 0.000000 0.000000
0.174225 0.052898 0.154505 0.000000 0.000000 0.000000
-0.147033 0.066392 0.166081 0.000000 0.000000 0.000000
-0.138883 0.070620 0.160552 0.000000 0.000000 0.000000
-0.131868 0.075913 0.155637 0.000000 0.000000 0.000000
-0.114565 0.075692 0.164419 0.000000 0.000000 0.000000
-0.134410 0.077788 0.155987 0.000000 0.000000 0.000000
-0.131250 0.080055 0.154866 0.000000 0.000000 0.000000
-0.110855 0.081745 0.161067 0.000000 0.000000 0.000000
-0.103484 0.084817 0.155635 0.000000 0.000000 0.000000
-0.084972 0.086562 0.161043 0.000000 0.000000 0.000000
-0.077875 0.087154 0.153645 0.000000 0.000000 0.000000
0.008558 0.088597 0.158963 0.000000 0.000000 0.000000
0.012575 0.088602 0.159405 0.000000 0.000000 0.000000
0.030304 0.088378 0.160088 0.000000 0.000000 0.000000
0.048243 0.087699 0.159860 0.000000 0.000000 0.000000
0.052017 0.088603 0.159372 0.000000 0.000000 0.000000
-0.082889 0.090717 0.157152 0.000000 0.000000 0.000000
-0.078834 0.091186 0.155339 0.000000 0.000000 0.000000
0.008689 0.092794 0.161858 0.000000 0.000000 0.000000
0.012084 0.092981 0.160374 0.000000 0.000000 0.000000
0.029869 0.092246 0.159228 0.000000 0.000000 0.000000
0.047823 0.091580 0.161605 0.000000 0.000000 0.000000
0.051732 0.091533 0.158813 0.000000 0.000000 0.000000
-0.146532 -0.081717 0.177579 0.000000 0.000000 0.000000
-0.137780 -0.081577 0.171397 0.000000 0.000000 0.000000
-0.125959 -0.080889 0.169638 0.000000 0.000000 0.000000
-0.116076 -0.081489 0.174759 0.000000 0.000000 0.000000
-0.159151 -0.066246 0.178600 0.000000 0.000000 0.000000
-0.151088 -0.072070 0.172964 0.000000 0.000000 0.000000
-0.138002 -0.077208 0.167832 0.000000 0.000000 0.000000
-0.125318 -0.078272 0.167619 0.000000 0.000000 0.000000
-0.111289 -0.073302 0.171768 0.000000 0.000000 0.000000
-0.104950 -0.068900 0.174732 0.000000 0.000000 0.000000
-0.162694 -0.057769 0.173065 0.000000 0.000000 0.000000
-0.155234 -0.064459 0.169822 0.000000 0.000000 0.000000
-0.099382 -0.059527 0.171786 0.000000 0.000000 0.000000
-0.093152 -0.054195 0.176063 0.000000 0.000000 0.000000
0.177771 -0.054188 0.168099 0.000000 0.000000 0.000000
0.186457 -0.055991 0.168461 0.000000 0.000000 0.000000
0.197907 -0.055662 0.168123 0.000000 0.000000 0.000000
-0.173896 -0.043532 0.174198 0.000000 0.000000 0.000000
-0.168484 -0.050069 0.172793 0.000000 0.000000 0.000000
-0.093859 -0.051118 0.169509 0.000000 0.000000 0.000000
-0.087797 -0.044829 0.172566 0.000000 0.000000 0.000000
0.033695 -0.041347 0.179050 0.000000 0.000000 0.000000
0.044248 -0.041628 0.178457 0.000000 0.000000 0.000000
0.051189 -0.041090 0.178878 0.000000 0.000000 0.000000
0.161101 -0.043091 0.167463 0.000000 0.000000 0.000000
0.172742 -0.046725 0.171364 0.000000 0.000000 0.000000
0.184564 -0.047151 0.174254 0.000000 0.000000 0.000000
0.198716 -0.046751 0.173985 0.000000 0.000000 0.000000
0.211509 -0.046023 0.170029 0.000000 0.000000 0.000000
0.221734 -0.041275 0.167312 0.000000 0.000000 0.000000
-0.185126 -0.029141 0.177950 0.000000 0.000000 0.000000
-0.180198 -0.033847 0.172451 0.000000 0.000000 0.000000
-0.083043 -0.037718 0.171032 0.000000 0.000000 0.000000
-0.077579 -0.030625 0.171999 0.000000 0.000000 0.000000
0.019358 -0.031295 0.176509 0.000000 0.000000 0.000000
0.028831 -0.034144 0.175228 0.000000 0.000000 0.000000
0.043590 -0.033379 0.172831 0.000000 0.000000 0.000000
0.057020 -0.031649 0.173533 0.000000 0.000000 0.000000
0.068879 -0.028801 0.176177 0.000000 0.000000 0.000000
0.150660 -0.030280 0.169853 0.000000 0.000000 0.000000
0.159600 -0.033596 0.174323 0.000000 0.000000 0.000000
0.170445 -0.037331 0.177465 0.000000 0.000000 0.000000
0.182594 -0.039764 0.179170 0.000000 0.000000 0.000000
0.204935 -0.038630 0.178190 0.000000 0.000000 0.000000
0.214222 -0.036417 0.176060 0.000000 0.000000 0.000000
0.226097 -0.032188 0.171261 0.000000 0.000000 0.000000
0.231650 -0.030719 0.167043 0.000000 0.000000 0.000000
-0.188483 -0.023006 0.173751 0.000000 0.000000 0.000000
-0.184249 -0.025678 0.166950 0.000000 0.000000 0.000000
-0.125813 -0.018137 0.177642 0.000000 0.000000 0.000000
-0.072252 -0.024152 0.174148 0.000000 0.000000 0.000000
0.008055 -0.022493 0.176259 0.000000 0.000000 0.000000
0.016500 -0.024268 0.172721 0.000000 0.000000 0.000000
0.028679 -0.023759 0.167914 0.000000 0.000000 0.000000
0.044153 -0.025236 0.167254 0.000000 0.000000 0.000000
0.057764 -0.024441 0.168660 0.000000 0.000000 0.000000
0.069480 -0.024266 0.173017 0.000000 0.000000 0.000000
0.078283 -0.023814 0.177706 0.000000 0.000000 0.000000
0.140268 -0.021036 0.167480 0.000000 0.000000 0.000000
0.146395 -0.022716 0.172893 0.000000 0.000000 0.000000
0.154922 -0.026238 0.177392 0.000000 0.000000 0.000000
0.227971 -0.024447 0.176867 0.000000 0.000000 0.000000
0.235367 -0.023810 0.169952 0.000000 0.000000 0.000000
-0.134647 -0.007097 0.177786 0.000000 0.000000 0.000000
-0.126788 -0.008770 0.177733 0.000000 0.000000 0.000000
-0.135204 0.005837 0.178087 0.000000 0.000000 0.000000
-0.126339 0.005463 0.177696 0.000000 0.000000 0.000000
-0.150541 0.019416 0.173736 0.000000 0.000000 0.000000
-0.139879 0.019201 0.170652 0.000000 0.000000 0.000000
-0.125679 0.018514 0.173652 0.000000 0.000000 0.000000
-0.112315 0.018880 0.173764 0.000000 0.000000 0.000000
-0.105093 0.018065 0.175080 0.000000 0.000000 0.000000
-0.146799 0.025693 0.176512 0.000000 0.000000 0.000000
-0.136886 0.029484 0.175163 0.000000 0.000000 0.000000
-0.125497 0.030233 0.174099 0.000000 0.000000 0.000000
-0.115621 0.026250 0.176179 0.000000 0.000000 0.000000
-0.139706 0.038170 0.179132 0.000000 0.000000 0.000000
-0.126731 0.042396 0.177415 0.000000 0.000000 0.000000
-0.148750 0.056192 0.171369 0.000000 0.000000 0.000000
-0.141102 0.056409 0.174821 0.000000 0.000000 0.000000
-0.123644 0.063687 0.177924 0.000000 0.000000 0.000000
-0.147284 0.065223 0.167432 0.000000 0.000000 0.000000
-0.122210 0.068264 0.175290 0.000000 0.000000 0.000000
-0.116179 0.073783 0.171489 0.000000 0.000000 0.000000
-0.097129 0.075306 0.177369 0.000000 0.000000 0.000000
-0.114279 0.079220 0.168363 0.000000 0.000000 0.000000
-0.095802 0.079420 0.174932 0.000000 0.000000 0.000000
-0.089772 0.082026 0.171191 0.000000 0.000000 0.000000
0.009249 0.087469 0.175962 0.000000 0.000000 0.000000
0.013203 0.086682 0.174809 0.000000 0.000000 0.000000
0.033087 0.087309 0.175522 0.000000 0.000000 0.000000
0.042880 0.086713 0.172882 0.000000 0.000000 0.000000
0.054350 0.086587 0.174398 0.000000 0.000000 0.000000
0.009237 0.091322 0.171539 0.000000 0.000000 0.000000
0.012913 0.091329 0.173434 0.000000 0.000000 0.000000
0.032077 0.091029 0.171262 0.000000 0.000000 0.000000
0.049534 0.090346 0.168121 0.000000 0.000000 0.000000
0.052349 0.090568 0.170515 0.000000 0.000000 0.000000
-0.150600 -0.080660 0.185104 0.000000 0.000000 0.000000
-0.110042 -0.081127 0.185217 0.000000 0.000000 0.000000
-0.160288 -0.067398 0.187727 0.000000 0.000000 0.000000
-0.155308 -0.073947 0.185471 0.000000 0.000000 0.000000
-0.107767 -0.078782 0.186797 0.000000 0.000000 0.000000
-0.103079 -0.071302 0.184231 0.000000 0.000000 0.000000
-0.165709 -0.058962 0.185773 0.000000 0.000000 0.000000
-0.096294 -0.061533 0.183840 0.000000 0.000000 0.000000
-0.091615 -0.055144 0.184950 0.000000 0.000000 0.000000
0.030078 -0.056038 0.190486 0.000000 0.000000 0.000000
0.041402 -0.059318 0.190616 0.000000 0.000000 0.000000
0.055164 -0.056170 0.190592 0.000000 0.000000 0.000000
-0.175359 -0.044841 0.185274 0.000000 0.000000 0.000000
-0.169976 -0.052310 0.184100 0.000000 0.000000 0.000000
-0.086954 -0.048460 0.185341 0.000000 0.000000 0.000000
0.018001 -0.045336 0.188373 0.000000 0.000000 0.000000
0.029169 -0.048443 0.185347 0.000000 0.000000 0.000000
0.043389 -0.047239 0.182422 0.000000 0.000000 0.000000
0.057931 -0.045923 0.183973 0.000000 0.000000 0.000000
0.067773 -0.044758 0.188129 0.000000 0.000000 0.000000
0.077891 -0.040179 0.192299 0.000000 0.000000 0.000000
-0.185973 -0.030010 0.185879 0.000000 0.000000 0.000000
-0.181034 -0.036875 0.184823 0.000000 0.000000 0.000000
-0.080645 -0.039136 0.184137 0.000000 0.000000 0.000000
-0.076512 -0.033293 0.186972 0.000000 0.000000 0.000000
0.005164 -0.031262 0.186118 0.000000 0.000000 0.000000
0.014584 -0.035812 0.182838 0.000000 0.000000 0.000000
0.026082 -0.039808 0.180153 0.000000 0.000000 0.000000
0.061273 -0.039712 0.180663 0.000000 0.000000 0.000000
0.070739 -0.035852 0.182880 0.000000 0.000000 0.000000
0.080902 -0.032308 0.187928 0.000000 0.000000 0.000000
0.163646 -0.027715 0.181424 0.000000 0.000000 0.000000
0.173826 -0.030834 0.183304 0.000000 0.000000 0.000000
0.186490 -0.032839 0.184323 0.000000 0.000000 0.000000
0.199480 -0.032524 0.183831 0.000000 0.000000 0.000000
0.212849 -0.030412 0.181278 0.000000 0.000000 0.000000
-0.190331 -0.023192 0.183069 0.000000 0.000000 0.000000
-0.140822 -0.017072 0.184800 0.000000 0.000000 0.000000
-0.120421 -0.014449 0.181035 0.000000 0.000000 0.000000
-0.118115 -0.016670 0.185959 0.000000 0.000000 0.000000
-0.070040 -0.023772 0.186343 0.000000 0.000000 0.000000
-0.004975 -0.024482 0.190344 0.000000 0.000000 0.000000
0.003288 -0.025089 0.182096 0.000000 0.000000 0.000000
0.083283 -0.024164 0.182514 0.000000 0.000000 0.000000
0.091051 -0.023684 0.190473 0.000000 0.000000 0.000000
0.151863 -0.020515 0.179888 0.000000 0.000000 0.000000
0.162143 -0.024318 0.183257 0.000000 0.000000 0.000000
0.171681 -0.023623 0.187961 0.000000 0.000000 0.000000
0.187781 -0.023965 0.190492 0.000000 0.000000 0.000000
0.198064 -0.023663 0.190304 0.000000 0.000000 0.000000
0.212046 -0.023666 0.186574 0.000000 0.000000 0.000000
0.221532 -0.023021 0.182321 0.000000 0.000000 0.000000
-0.141756 -0.007339 0.185697 0.000000 0.000000 0.000000
-0.120582 -0.007625 0.180956 0.000000 0.000000 0.000000
-0.117506 -0.007568 0.187270 0.000000 0.000000 0.000000
-0.141504 0.005935 0.185913 0.000000 0.000000 0.000000
-0.120432 0.006271 0.181080 0.000000 0.000000 0.000000
-0.117751 0.005603 0.186777 0.000000 0.000000 0.000000
-0.159863 0.016810 0.185740 0.000000 0.000000 0.000000
-0.153194 0.018291 0.185559 0.000000 0.000000 0.000000
-0.139160 0.018121 0.186621 0.000000 0.000000 0.000000
-0.124487 0.016927 0.185986 0.000000 0.000000 0.000000
-0.114772 0.019198 0.186475 0.000000 0.000000 0.000000
-0.102525 0.018643 0.186013 0.000000 0.000000 0.000000
-0.148698 0.027138 0.187027 0.000000 0.000000 0.000000
-0.139712 0.032588 0.185670 0.000000 0.000000 0.000000
-0.126785 0.032964 0.187001 0.000000 0.000000 0.000000
-0.114639 0.030093 0.185599 0.000000 0.000000 0.000000
-0.136567 0.044114 0.186103 0.000000 0.000000 0.000000
-0.126547 0.045675 0.186076 0.000000 0.000000 0.000000
-0.116774 0.041466 0.186609 0.000000 0.000000 0.000000
-0.138260 0.052979 0.183925 0.000000 0.000000 0.000000
-0.127286 0.057223 0.186709 0.000000 0.000000 0.000000
-0.103670 0.063111 0.191338 0.000000 0.000000 0.000000
