ply
format ascii 1.0
element vertex 865
property float x
property float y
property float z
property float nx
property float ny
property float nz
end_header
-0.001921 -0.032032 0.017549 0.000000 0.000000 0.000000
0.010083 -0.032651 0.016440 0.000000 0.000000 0.000000
0.023223 -0.033023 0.014006 0.000000 0.000000 0.000000
0.033346 -0.033348 0.016208 0.000000 0.000000 0.000000
0.044778 -0.031685 0.014276 0.000000 0.000000 0.000000
-0.058353 -0.018512 0.011415 0.000000 0.000000 0.000000
-0.049490 -0.020070 0.015148 0.000000 0.000000 0.000000
-0.038144 -0.020394 0.014514 0.000000 0.000000 0.000000
-0.025484 -0.019978 0.018266 0.000000 0.000000 0.000000
-0.014961 -0.022535 0.020276 0.000000 0.000000 0.000000
-0.004192 -0.023657 0.020816 0.000000 0.000000 0.000000
0.011440 -0.022571 0.020394 0.000000 0.000000 0.000000
0.023478 -0.020727 0.018296 0.000000 0.000000 0.000000
0.034403 -0.020339 0.014683 0.000000 0.000000 0.000000
0.047320 -0.020942 0.016194 0.000000 0.000000 0.000000
0.055704 -0.019253 0.012624 0.000000 0.000000 0.000000
-0.060572 -0.007728 0.013621 0.000000 0.000000 0.000000
-0.049447 -0.009218 0.015841 0.000000 0.000000 0.000000
-0.038572 -0.009487 0.016133 0.000000 0.000000 0.000000
-0.031008 -0.012494 0.019073 0.000000 0.000000 0.000000
0.026448 -0.012957 0.020074 0.000000 0.000000 0.000000
0.035190 -0.008197 0.017975 0.000000 0.000000 0.000000
0.046566 -0.008205 0.015074 0.000000 0.000000 0.000000
0.057550 -0.007814 0.014592 0.000000 0.000000 0.000000
-0.069267 0.006877 0.010494 0.000000 0.000000 0.000000
-0.061637 0.002311 0.015071 0.000000 0.000000 0.000000
-0.049900 0.001433 0.013773 0.000000 0.000000 0.000000
-0.037789 0.002559 0.016702 0.000000 0.000000 0.000000
-0.025318 0.002972 0.016319 0.000000 0.000000 0.000000
-0.013912 0.004160 0.013638 0.000000 0.000000 0.000000
-0.001767 0.004440 0.016430 0.000000 0.000000 0.000000
0.008650 0.003579 0.014948 0.000000 0.000000 0.000000
0.022318 0.003649 0.014790 0.000000 0.000000 0.000000
0.034252 0.003364 0.016934 0.000000 0.000000 0.000000
0.045934 0.001304 0.015439 0.000000 0.000000 0.000000
0.059235 0.003529 0.014779 0.000000 0.000000 0.000000
0.066878 0.006848 0.011284 0.000000 0.000000 0.000000
-0.069900 0.016474 0.013005 0.000000 0.000000 0.000000
-0.063365 0.015744 0.015993 0.000000 0.000000 0.000000
-0.048938 0.013492 0.015217 0.000000 0.000000 0.000000
-0.036485 0.013072 0.014867 0.000000 0.000000 0.000000
-0.026443 0.013249 0.014789 0.000000 0.000000 0.000000
-0.012780 0.014015 0.014039 0.000000 0.000000 0.000000
-0.001713 0.013309 0.013732 0.000000 0.000000 0.000000
0.008919 0.013293 0.015669 0.000000 0.000000 0.000000
0.021965 0.013259 0.014897 0.000000 0.000000 0.000000
0.033720 0.013183 0.013257 0.000000 0.000000 0.000000
0.046978 0.012791 0.016801 0.000000 0.000000 0.000000
0.059078 0.015339 0.015595 0.000000 0.000000 0.000000
0.066451 0.017452 0.014311 0.000000 0.000000 0.000000
-0.071097 0.025781 0.013434 0.000000 0.000000 0.000000
-0.065926 0.023412 0.017952 0.000000 0.000000 0.000000
0.063011 0.022810 0.018872 0.000000 0.000000 0.000000
0.068679 0.024979 0.014352 0.000000 0.000000 0.000000
-0.011242 0.043052 0.010589 0.000000 0.000000 0.000000
-0.000481 0.041913 0.013159 0.000000 0.000000 0.000000
0.007810 0.043365 0.010855 0.000000 0.000000 0.000000
-0.021512 0.052630 0.010525 0.000000 0.000000 0.000000
-0.012956 0.051151 0.013453 0.000000 0.000000 0.000000
-0.001029 0.051383 0.015146 0.000000 0.000000 0.000000
0.009101 0.051091 0.014080 0.000000 0.000000 0.000000
0.020467 0.053381 0.010188 0.000000 0.000000 0.000000
-0.024546 0.064174 0.013006 0.000000 0.000000 0.000000
-0.014593 0.061933 0.017928 0.000000 0.000000 0.000000
-0.005283 0.061236 0.019964 0.000000 0.000000 0.000000
0.011120 0.063247 0.018989 0.000000 0.000000 0.000000
0.021947 0.064821 0.013851 0.000000 0.000000 0.000000
-0.032892 0.078982 0.010654 0.000000 0.000000 0.000000
-0.026833 0.075582 0.016230 0.000000 0.000000 0.000000
0.023885 0.075420 0.017058 0.000000 0.000000 0.000000
0.029880 0.075561 0.010827 0.000000 0.000000 0.000000
-0.034017 0.086995 0.012556 0.000000 0.000000 0.000000
-0.029661 0.087095 0.018555 0.000000 0.000000 0.000000
0.025464 0.086455 0.020665 0.000000 0.000000 0.000000
0.031164 0.088333 0.014582 0.000000 0.000000 0.000000
-0.034661 0.099125 0.016559 0.000000 0.000000 0.000000
-0.031436 0.094107 0.019432 0.000000 0.000000 0.000000
0.034334 0.100287 0.013992 0.000000 0.000000 0.000000
-0.035938 0.113462 0.014506 0.000000 0.000000 0.000000
-0.025307 0.113736 0.014661 0.000000 0.000000 0.000000
-0.014143 0.113146 0.016031 0.000000 0.000000 0.000000
-0.002257 0.113516 0.014338 0.000000 0.000000 0.000000
0.009546 0.113340 0.015196 0.000000 0.000000 0.000000
0.022566 0.113941 0.015620 0.000000 0.000000 0.000000
0.035376 0.112649 0.014004 0.000000 0.000000 0.000000
-0.001610 -0.051029 0.022101 0.000000 0.000000 0.000000
-0.023564 -0.041617 0.022768 0.000000 0.000000 0.000000
-0.013823 -0.043073 0.022515 0.000000 0.000000 0.000000
-0.001464 -0.042917 0.024190 0.000000 0.000000 0.000000
0.011950 -0.043691 0.023362 0.000000 0.000000 0.000000
0.021734 -0.040904 0.023029 0.000000 0.000000 0.000000
-0.036588 -0.028399 0.023057 0.000000 0.000000 0.000000
-0.024329 -0.031492 0.025315 0.000000 0.000000 0.000000
-0.013944 -0.032862 0.026529 0.000000 0.000000 0.000000
-0.001626 -0.031091 0.028243 0.000000 0.000000 0.000000
0.009201 -0.032044 0.027554 0.000000 0.000000 0.000000
0.022811 -0.030803 0.025908 0.000000 0.000000 0.000000
0.030966 -0.030754 0.022762 0.000000 0.000000 0.000000
-0.046023 -0.016769 0.023359 0.000000 0.000000 0.000000
-0.036772 -0.018957 0.025864 0.000000 0.000000 0.000000
-0.025897 -0.019988 0.027798 0.000000 0.000000 0.000000
-0.013685 -0.020151 0.027436 0.000000 0.000000 0.000000
-0.001784 -0.020080 0.025234 0.000000 0.000000 0.000000
0.009578 -0.019688 0.025677 0.000000 0.000000 0.000000
0.021413 -0.019469 0.028999 0.000000 0.000000 0.000000
0.033431 -0.019734 0.025991 0.000000 0.000000 0.000000
0.043038 -0.018425 0.023523 0.000000 0.000000 0.000000
-0.049045 -0.005736 0.024792 0.000000 0.000000 0.000000
-0.038325 -0.008412 0.027786 0.000000 0.000000 0.000000
-0.025922 -0.007099 0.026429 0.000000 0.000000 0.000000
-0.013619 -0.008640 0.027146 0.000000 0.000000 0.000000
-0.001897 -0.007720 0.028404 0.000000 0.000000 0.000000
0.010164 -0.008684 0.027688 0.000000 0.000000 0.000000
0.021970 -0.007742 0.026618 0.000000 0.000000 0.000000
0.033577 -0.007070 0.028699 0.000000 0.000000 0.000000
0.045208 -0.007281 0.025337 0.000000 0.000000 0.000000
0.052457 -0.004944 0.021690 0.000000 0.000000 0.000000
-0.056504 0.003088 0.023386 0.000000 0.000000 0.000000
-0.049619 0.004849 0.027253 0.000000 0.000000 0.000000
-0.038149 0.003422 0.026174 0.000000 0.000000 0.000000
-0.025907 0.004291 0.026411 0.000000 0.000000 0.000000
-0.012650 0.004381 0.027290 0.000000 0.000000 0.000000
-0.002621 0.006020 0.025341 0.000000 0.000000 0.000000
0.010326 0.004126 0.026166 0.000000 0.000000 0.000000
0.021300 0.003938 0.027062 0.000000 0.000000 0.000000
0.034999 0.004796 0.026473 0.000000 0.000000 0.000000
0.045553 0.003941 0.027413 0.000000 0.000000 0.000000
0.053660 0.005605 0.025355 0.000000 0.000000 0.000000
-0.058927 0.015911 0.025521 0.000000 0.000000 0.000000
-0.051435 0.014223 0.027973 0.000000 0.000000 0.000000
-0.040568 0.010051 0.022417 0.000000 0.000000 0.000000
-0.023373 0.009841 0.023458 0.000000 0.000000 0.000000
-0.009628 0.010423 0.022147 0.000000 0.000000 0.000000
-0.005672 0.010221 0.022602 0.000000 0.000000 0.000000
0.025337 0.010639 0.021657 0.000000 0.000000 0.000000
0.032447 0.009922 0.022830 0.000000 0.000000 0.000000
0.047509 0.013103 0.028606 0.000000 0.000000 0.000000
0.057170 0.016199 0.025445 0.000000 0.000000 0.000000
-0.064965 0.021959 0.023064 0.000000 0.000000 0.000000
-0.002209 0.040707 0.026881 0.000000 0.000000 0.000000
0.004448 0.043811 0.027658 0.000000 0.000000 0.000000
-0.001369 0.049152 0.026106 0.000000 0.000000 0.000000
0.004507 0.045670 0.024744 0.000000 0.000000 0.000000
-0.010397 0.068047 0.022246 0.000000 0.000000 0.000000
-0.001265 0.067117 0.022750 0.000000 0.000000 0.000000
0.005250 0.066760 0.022153 0.000000 0.000000 0.000000
-0.021609 0.079295 0.022261 0.000000 0.000000 0.000000
-0.013886 0.076439 0.024496 0.000000 0.000000 0.000000
-0.000089 0.075625 0.026625 0.000000 0.000000 0.000000
0.011013 0.077601 0.025423 0.000000 0.000000 0.000000
0.018630 0.077827 0.022113 0.000000 0.000000 0.000000
-0.023844 0.087468 0.024006 0.000000 0.000000 0.000000
-0.013154 0.086579 0.029279 0.000000 0.000000 0.000000
-0.000474 0.085539 0.031037 0.000000 0.000000 0.000000
0.009897 0.087743 0.030355 0.000000 0.000000 0.000000
0.021571 0.086481 0.023863 0.000000 0.000000 0.000000
-0.025710 0.099109 0.027437 0.000000 0.000000 0.000000
-0.017897 0.098073 0.032454 0.000000 0.000000 0.000000
-0.000331 0.104745 0.031152 0.000000 0.000000 0.000000
0.013988 0.095888 0.032430 0.000000 0.000000 0.000000
0.021619 0.099674 0.029676 0.000000 0.000000 0.000000
0.029331 0.102996 0.023766 0.000000 0.000000 0.000000
-0.026238 0.109371 0.027326 0.000000 0.000000 0.000000
-0.014041 0.109071 0.025736 0.000000 0.000000 0.000000
-0.001163 0.109601 0.025351 0.000000 0.000000 0.000000
0.009839 0.109310 0.026390 0.000000 0.000000 0.000000
0.021932 0.108955 0.027843 0.000000 0.000000 0.000000
0.031288 0.109442 0.023829 0.000000 0.000000 0.000000
-0.022733 -0.017674 0.033605 0.000000 0.000000 0.000000
-0.012201 -0.019275 0.034649 0.000000 0.000000 0.000000
-0.001079 -0.019276 0.035206 0.000000 0.000000 0.000000
0.011172 -0.017708 0.035229 0.000000 0.000000 0.000000
0.017711 -0.016317 0.034904 0.000000 0.000000 0.000000
-0.034820 -0.004252 0.034559 0.000000 0.000000 0.000000
-0.024950 -0.007694 0.035943 0.000000 0.000000 0.000000
-0.012681 -0.008459 0.037778 0.000000 0.000000 0.000000
-0.000521 -0.008141 0.038398 0.000000 0.000000 0.000000
0.010862 -0.007849 0.037910 0.000000 0.000000 0.000000
0.021589 -0.007502 0.036486 0.000000 0.000000 0.000000
0.031892 -0.006595 0.034019 0.000000 0.000000 0.000000
-0.045500 0.007323 0.034420 0.000000 0.000000 0.000000
-0.037222 0.005770 0.036289 0.000000 0.000000 0.000000
-0.025572 0.004733 0.040287 0.000000 0.000000 0.000000
-0.014057 0.003410 0.041312 0.000000 0.000000 0.000000
-0.001678 0.003385 0.040391 0.000000 0.000000 0.000000
0.010463 0.003866 0.040345 0.000000 0.000000 0.000000
0.022666 0.004279 0.039195 0.000000 0.000000 0.000000
0.033331 0.003893 0.036533 0.000000 0.000000 0.000000
0.043387 0.006505 0.034216 0.000000 0.000000 0.000000
-0.048877 0.015167 0.034460 0.000000 0.000000 0.000000
-0.038454 0.012148 0.037562 0.000000 0.000000 0.000000
-0.026925 0.011717 0.043152 0.000000 0.000000 0.000000
-0.013951 0.011093 0.044254 0.000000 0.000000 0.000000
-0.005701 0.009859 0.044881 0.000000 0.000000 0.000000
0.013091 0.010147 0.043681 0.000000 0.000000 0.000000
0.023498 0.011390 0.043128 0.000000 0.000000 0.000000
0.033420 0.012336 0.039470 0.000000 0.000000 0.000000
0.045115 0.014714 0.035151 0.000000 0.000000 0.000000
-0.002598 0.031932 0.042401 0.000000 0.000000 0.000000
-0.001314 0.039615 0.038926 0.000000 0.000000 0.000000
0.004397 0.040292 0.037394 0.000000 0.000000 0.000000
0.001740 0.046217 0.033953 0.000000 0.000000 0.000000
-0.001434 0.091661 0.033740 0.000000 0.000000 0.000000
0.009331 0.093300 0.033327 0.000000 0.000000 0.000000
-0.012486 0.101514 0.036150 0.000000 0.000000 0.000000
-0.001505 0.100274 0.036790 0.000000 0.000000 0.000000
0.008169 0.099591 0.035948 0.000000 0.000000 0.000000
-0.013971 0.106294 0.034901 0.000000 0.000000 0.000000
-0.002427 0.106197 0.035122 0.000000 0.000000 0.000000
0.009370 0.105899 0.035792 0.000000 0.000000 0.000000
-0.024312 0.009270 0.045311 0.000000 0.000000 0.000000
-0.016286 0.006372 0.045426 0.000000 0.000000 0.000000
-0.001996 0.005205 0.046752 0.000000 0.000000 0.000000
0.009987 0.006688 0.046210 0.000000 0.000000 0.000000
0.017390 0.008559 0.045973 0.000000 0.000000 0.000000
-0.025074 0.012030 0.045473 0.000000 0.000000 0.000000
-0.014133 0.011156 0.046997 0.000000 0.000000 0.000000
-0.001906 0.010989 0.047570 0.000000 0.000000 0.000000
0.009731 0.011183 0.046873 0.000000 0.000000 0.000000
0.021170 0.010819 0.046138 0.000000 0.000000 0.000000
-0.000800 0.029176 0.050771 0.000000 0.000000 0.000000
0.004398 0.032083 0.055194 0.000000 0.000000 0.000000
-0.001695 0.038055 0.050517 0.000000 0.000000 0.000000
0.004501 0.035573 0.046930 0.000000 0.000000 0.000000
-0.001790 0.021007 0.066243 0.000000 0.000000 0.000000
-0.001628 0.026029 0.063467 0.000000 0.000000 0.000000
0.004495 0.027848 0.064943 0.000000 0.000000 0.000000
-0.001617 0.034742 0.060338 0.000000 0.000000 0.000000
-0.001138 0.018151 0.075293 0.000000 0.000000 0.000000
0.004412 0.020213 0.079117 0.000000 0.000000 0.000000
-0.001380 0.027340 0.074520 0.000000 0.000000 0.000000
0.004431 0.023463 0.074127 0.000000 0.000000 0.000000
-0.000329 0.009257 0.092334 0.000000 0.000000 0.000000
-0.001303 0.015818 0.087727 0.000000 0.000000 0.000000
0.004480 0.016495 0.088922 0.000000 0.000000 0.000000
-0.001646 0.023104 0.085547 0.000000 0.000000 0.000000
-0.001258 0.006762 0.100812 0.000000 0.000000 0.000000
-0.002536 0.015939 0.098578 0.000000 0.000000 0.000000
0.004460 0.013372 0.097448 0.000000 0.000000 0.000000
-0.003029 0.003554 0.111196 0.000000 0.000000 0.000000
0.004462 0.006439 0.110329 0.000000 0.000000 0.000000
-0.000638 0.012254 0.109601 0.000000 0.000000 0.000000
-0.001410 -0.004438 0.125051 0.000000 0.000000 0.000000
-0.002900 0.004221 0.122639 0.000000 0.000000 0.000000
0.004497 0.000809 0.125106 0.000000 0.000000 0.000000
-0.038458 -0.561314 0.140113 0.000000 0.000000 0.000000
-0.026410 -0.562663 0.138458 0.000000 0.000000 0.000000
-0.014298 -0.562388 0.134717 0.000000 0.000000 0.000000
-0.001922 -0.562914 0.133394 0.000000 0.000000 0.000000
0.011464 -0.562962 0.133278 0.000000 0.000000 0.000000
0.022168 -0.563074 0.134471 0.000000 0.000000 0.000000
0.033280 -0.561477 0.132733 0.000000 0.000000 0.000000
0.045967 -0.564100 0.135379 0.000000 0.000000 0.000000
0.058974 -0.562115 0.137378 0.000000 0.000000 0.000000
0.068907 -0.560939 0.139753 0.000000 0.000000 0.000000
-0.036622 -0.548378 0.139595 0.000000 0.000000 0.000000
-0.026553 -0.548073 0.137041 0.000000 0.000000 0.000000
-0.012062 -0.549033 0.133364 0.000000 0.000000 0.000000
-0.002243 -0.548183 0.131491 0.000000 0.000000 0.000000
0.009598 -0.548686 0.131369 0.000000 0.000000 0.000000
0.022086 -0.549293 0.131535 0.000000 0.000000 0.000000
0.035253 -0.547935 0.131710 0.000000 0.000000 0.000000
0.044702 -0.549495 0.132920 0.000000 0.000000 0.000000
0.056624 -0.548330 0.136286 0.000000 0.000000 0.000000
0.069133 -0.548700 0.139817 0.000000 0.000000 0.000000
-0.034382 -0.542328 0.140279 0.000000 0.000000 0.000000
-0.025798 -0.542328 0.138812 0.000000 0.000000 0.000000
-0.012431 -0.542328 0.136937 0.000000 0.000000 0.000000
-0.001140 -0.542328 0.135758 0.000000 0.000000 0.000000
0.009652 -0.542328 0.135458 0.000000 0.000000 0.000000
0.022535 -0.542328 0.136837 0.000000 0.000000 0.000000
0.033529 -0.542328 0.135462 0.000000 0.000000 0.000000
0.045419 -0.542328 0.137254 0.000000 0.000000 0.000000
0.058298 -0.542328 0.138072 0.000000 0.000000 0.000000
0.069217 -0.542328 0.140558 0.000000 0.000000 0.000000
-0.001428 -0.008173 0.135956 0.000000 0.000000 0.000000
0.004372 -0.003823 0.133955 0.000000 0.000000 0.000000
0.000115 0.000726 0.134154 0.000000 0.000000 0.000000
-0.060473 -0.560543 0.150320 0.000000 0.000000 0.000000
-0.049810 -0.562829 0.145523 0.000000 0.000000 0.000000
-0.036821 -0.566352 0.147954 0.000000 0.000000 0.000000
-0.026849 -0.566352 0.147137 0.000000 0.000000 0.000000
-0.013657 -0.566352 0.147931 0.000000 0.000000 0.000000
-0.003191 -0.566352 0.148407 0.000000 0.000000 0.000000
0.012006 -0.566352 0.148131 0.000000 0.000000 0.000000
0.022163 -0.566352 0.147875 0.000000 0.000000 0.000000
0.033705 -0.566352 0.147840 0.000000 0.000000 0.000000
0.045238 -0.566352 0.149750 0.000000 0.000000 0.000000
0.057153 -0.566352 0.146988 0.000000 0.000000 0.000000
0.071607 -0.565732 0.146140 0.000000 0.000000 0.000000
0.081613 -0.563492 0.145638 0.000000 0.000000 0.000000
0.093840 -0.561858 0.150369 0.000000 0.000000 0.000000
-0.060702 -0.548607 0.150100 0.000000 0.000000 0.000000
-0.052080 -0.548537 0.145297 0.000000 0.000000 0.000000
-0.043630 -0.550137 0.141373 0.000000 0.000000 0.000000
0.082751 -0.548482 0.144030 0.000000 0.000000 0.000000
0.095518 -0.549082 0.151122 0.000000 0.000000 0.000000
-0.061577 -0.542328 0.151624 0.000000 0.000000 0.000000
-0.049317 -0.542328 0.148979 0.000000 0.000000 0.000000
-0.038397 -0.542328 0.146813 0.000000 0.000000 0.000000
-0.026052 -0.542328 0.147647 0.000000 0.000000 0.000000
-0.016387 -0.542328 0.146540 0.000000 0.000000 0.000000
-0.001120 -0.542328 0.148072 0.000000 0.000000 0.000000
0.010700 -0.542328 0.147729 0.000000 0.000000 0.000000
0.021159 -0.542328 0.146717 0.000000 0.000000 0.000000
0.033554 -0.542328 0.147747 0.000000 0.000000 0.000000
0.045323 -0.542328 0.147269 0.000000 0.000000 0.000000
0.057762 -0.542328 0.143854 0.000000 0.000000 0.000000
0.069145 -0.542328 0.147410 0.000000 0.000000 0.000000
0.083288 -0.542328 0.149227 0.000000 0.000000 0.000000
0.093335 -0.542328 0.151100 0.000000 0.000000 0.000000
0.000981 -0.015504 0.149517 0.000000 0.000000 0.000000
-0.001822 -0.009087 0.147063 0.000000 0.000000 0.000000
0.004483 -0.010127 0.149273 0.000000 0.000000 0.000000
-0.000481 -0.000798 0.141702 0.000000 0.000000 0.000000
-0.083357 -0.561874 0.162997 0.000000 0.000000 0.000000
-0.072432 -0.560606 0.157931 0.000000 0.000000 0.000000
-0.062997 -0.564127 0.158052 0.000000 0.000000 0.000000
-0.050307 -0.566352 0.159417 0.000000 0.000000 0.000000
-0.036644 -0.566352 0.159444 0.000000 0.000000 0.000000
-0.026680 -0.566352 0.158808 0.000000 0.000000 0.000000
-0.012803 -0.566352 0.159988 0.000000 0.000000 0.000000
-0.001901 -0.566352 0.161493 0.000000 0.000000 0.000000
0.010280 -0.566352 0.160619 0.000000 0.000000 0.000000
0.024195 -0.566352 0.159316 0.000000 0.000000 0.000000
0.035261 -0.566352 0.160991 0.000000 0.000000 0.000000
0.047734 -0.566352 0.159534 0.000000 0.000000 0.000000
0.057605 -0.566352 0.158697 0.000000 0.000000 0.000000
0.071810 -0.566352 0.160283 0.000000 0.000000 0.000000
0.082686 -0.566352 0.158883 0.000000 0.000000 0.000000
0.094337 -0.566033 0.159017 0.000000 0.000000 0.000000
0.105594 -0.562180 0.159332 0.000000 0.000000 0.000000
0.114851 -0.562394 0.162981 0.000000 0.000000 0.000000
-0.084673 -0.550345 0.163762 0.000000 0.000000 0.000000
-0.075500 -0.548117 0.158383 0.000000 0.000000 0.000000
-0.066809 -0.547092 0.153518 0.000000 0.000000 0.000000
0.105898 -0.547656 0.157300 0.000000 0.000000 0.000000
0.115975 -0.549203 0.163299 0.000000 0.000000 0.000000
-0.071691 -0.542328 0.160281 0.000000 0.000000 0.000000
-0.062402 -0.542328 0.160587 0.000000 0.000000 0.000000
-0.050662 -0.542328 0.159439 0.000000 0.000000 0.000000
-0.037053 -0.542328 0.161293 0.000000 0.000000 0.000000
-0.024971 -0.542328 0.159153 0.000000 0.000000 0.000000
-0.013446 -0.542328 0.160571 0.000000 0.000000 0.000000
-0.001964 -0.542328 0.160660 0.000000 0.000000 0.000000
0.011187 -0.542328 0.159249 0.000000 0.000000 0.000000
0.022008 -0.542328 0.159606 0.000000 0.000000 0.000000
0.035019 -0.542328 0.157672 0.000000 0.000000 0.000000
0.047113 -0.542328 0.158427 0.000000 0.000000 0.000000
0.057385 -0.542328 0.160678 0.000000 0.000000 0.000000
0.070357 -0.542328 0.160829 0.000000 0.000000 0.000000
0.082748 -0.542328 0.159679 0.000000 0.000000 0.000000
0.096121 -0.542328 0.159299 0.000000 0.000000 0.000000
0.105514 -0.542328 0.159847 0.000000 0.000000 0.000000
0.116011 -0.542328 0.163501 0.000000 0.000000 0.000000
-0.001276 -0.018564 0.160000 0.000000 0.000000 0.000000
0.004468 -0.016502 0.161696 0.000000 0.000000 0.000000
-0.002468 -0.009984 0.158715 0.000000 0.000000 0.000000
0.004540 -0.012881 0.156003 0.000000 0.000000 0.000000
-0.094643 -0.561721 0.173285 0.000000 0.000000 0.000000
-0.087012 -0.564396 0.169784 0.000000 0.000000 0.000000
-0.071752 -0.566352 0.172800 0.000000 0.000000 0.000000
-0.062986 -0.566352 0.170013 0.000000 0.000000 0.000000
-0.048085 -0.566352 0.172227 0.000000 0.000000 0.000000
-0.037393 -0.566352 0.170288 0.000000 0.000000 0.000000
-0.024509 -0.566352 0.170268 0.000000 0.000000 0.000000
-0.013966 -0.566352 0.171195 0.000000 0.000000 0.000000
-0.002347 -0.566352 0.171419 0.000000 0.000000 0.000000
0.010804 -0.566352 0.172669 0.000000 0.000000 0.000000
0.020857 -0.566352 0.172383 0.000000 0.000000 0.000000
0.033511 -0.566352 0.171742 0.000000 0.000000 0.000000
0.046382 -0.566352 0.172625 0.000000 0.000000 0.000000
0.057652 -0.566352 0.172020 0.000000 0.000000 0.000000
0.069974 -0.566352 0.170519 0.000000 0.000000 0.000000
0.082894 -0.566352 0.171989 0.000000 0.000000 0.000000
0.094680 -0.566352 0.172698 0.000000 0.000000 0.000000
0.104655 -0.566352 0.171932 0.000000 0.000000 0.000000
0.120298 -0.563579 0.170689 0.000000 0.000000 0.000000
0.127863 -0.560686 0.173890 0.000000 0.000000 0.000000
-0.095206 -0.548651 0.173681 0.000000 0.000000 0.000000
-0.089516 -0.547866 0.168141 0.000000 0.000000 0.000000
0.122510 -0.548611 0.167820 0.000000 0.000000 0.000000
0.128064 -0.548021 0.173475 0.000000 0.000000 0.000000
-0.093708 -0.542328 0.173909 0.000000 0.000000 0.000000
-0.084565 -0.542328 0.172021 0.000000 0.000000 0.000000
-0.073961 -0.542328 0.173019 0.000000 0.000000 0.000000
-0.061732 -0.542328 0.171246 0.000000 0.000000 0.000000
-0.049322 -0.542328 0.172136 0.000000 0.000000 0.000000
-0.036716 -0.542328 0.171020 0.000000 0.000000 0.000000
-0.026074 -0.542328 0.171354 0.000000 0.000000 0.000000
-0.011876 -0.542328 0.171303 0.000000 0.000000 0.000000
-0.001701 -0.542328 0.171951 0.000000 0.000000 0.000000
0.009263 -0.542328 0.171010 0.000000 0.000000 0.000000
0.022727 -0.542328 0.172528 0.000000 0.000000 0.000000
0.033290 -0.542328 0.169420 0.000000 0.000000 0.000000
0.046331 -0.542328 0.171955 0.000000 0.000000 0.000000
0.058170 -0.542328 0.170952 0.000000 0.000000 0.000000
0.069166 -0.542328 0.170351 0.000000 0.000000 0.000000
0.081803 -0.542328 0.170646 0.000000 0.000000 0.000000
0.095028 -0.542328 0.172212 0.000000 0.000000 0.000000
0.105473 -0.542328 0.171771 0.000000 0.000000 0.000000
0.117990 -0.542328 0.171198 0.000000 0.000000 0.000000
0.128008 -0.542328 0.176409 0.000000 0.000000 0.000000
-0.000316 -0.027052 0.174804 0.000000 0.000000 0.000000
-0.001578 -0.020886 0.172194 0.000000 0.000000 0.000000
0.004427 -0.017685 0.167433 0.000000 0.000000 0.000000
0.000002 -0.013571 0.168742 0.000000 0.000000 0.000000
-0.107537 -0.562065 0.186815 0.000000 0.000000 0.000000
-0.099066 -0.563855 0.182058 0.000000 0.000000 0.000000
-0.086101 -0.566352 0.183115 0.000000 0.000000 0.000000
-0.074775 -0.566352 0.182599 0.000000 0.000000 0.000000
-0.062338 -0.566352 0.182832 0.000000 0.000000 0.000000
-0.049550 -0.566352 0.183518 0.000000 0.000000 0.000000
-0.038839 -0.566352 0.183227 0.000000 0.000000 0.000000
-0.025203 -0.566352 0.182857 0.000000 0.000000 0.000000
-0.014406 -0.566352 0.181755 0.000000 0.000000 0.000000
-0.002500 -0.566352 0.181331 0.000000 0.000000 0.000000
0.011651 -0.566352 0.183158 0.000000 0.000000 0.000000
0.023070 -0.566352 0.183533 0.000000 0.000000 0.000000
0.034943 -0.566352 0.183512 0.000000 0.000000 0.000000
0.045768 -0.566352 0.181802 0.000000 0.000000 0.000000
0.056449 -0.566352 0.183364 0.000000 0.000000 0.000000
0.070326 -0.566352 0.184737 0.000000 0.000000 0.000000
0.081218 -0.566352 0.183725 0.000000 0.000000 0.000000
0.094967 -0.566352 0.184217 0.000000 0.000000 0.000000
0.105595 -0.566352 0.183370 0.000000 0.000000 0.000000
0.116827 -0.566352 0.183617 0.000000 0.000000 0.000000
0.132265 -0.563185 0.181828 0.000000 0.000000 0.000000
0.139124 -0.558932 0.184834 0.000000 0.000000 0.000000
-0.107236 -0.548212 0.185396 0.000000 0.000000 0.000000
-0.101673 -0.549303 0.179979 0.000000 0.000000 0.000000
0.135792 -0.551589 0.181412 0.000000 0.000000 0.000000
0.139840 -0.547995 0.185570 0.000000 0.000000 0.000000
-0.105150 -0.542328 0.185464 0.000000 0.000000 0.000000
-0.097511 -0.542328 0.182029 0.000000 0.000000 0.000000
-0.085978 -0.542328 0.183172 0.000000 0.000000 0.000000
-0.074230 -0.542328 0.182008 0.000000 0.000000 0.000000
-0.062749 -0.542328 0.183023 0.000000 0.000000 0.000000
-0.047510 -0.542328 0.182233 0.000000 0.000000 0.000000
-0.038081 -0.542328 0.182355 0.000000 0.000000 0.000000
-0.024288 -0.542328 0.183206 0.000000 0.000000 0.000000
-0.014602 -0.542328 0.185099 0.000000 0.000000 0.000000
-0.003399 -0.542328 0.183204 0.000000 0.000000 0.000000
0.011102 -0.542328 0.183871 0.000000 0.000000 0.000000
0.022031 -0.542328 0.184783 0.000000 0.000000 0.000000
0.033989 -0.542328 0.182445 0.000000 0.000000 0.000000
0.045386 -0.542328 0.181997 0.000000 0.000000 0.000000
0.057253 -0.542328 0.185526 0.000000 0.000000 0.000000
0.070839 -0.542328 0.182499 0.000000 0.000000 0.000000
0.081297 -0.542328 0.182375 0.000000 0.000000 0.000000
0.093757 -0.542328 0.183597 0.000000 0.000000 0.000000
0.103070 -0.542328 0.182890 0.000000 0.000000 0.000000
0.119210 -0.542328 0.183524 0.000000 0.000000 0.000000
0.129967 -0.542328 0.184007 0.000000 0.000000 0.000000
0.138429 -0.542328 0.187296 0.000000 0.000000 0.000000
-0.002912 -0.029825 0.185080 0.000000 0.000000 0.000000
-0.001640 -0.021894 0.183820 0.000000 0.000000 0.000000
0.004492 -0.024923 0.183436 0.000000 0.000000 0.000000
-0.118300 -0.562396 0.198073 0.000000 0.000000 0.000000
-0.109814 -0.564811 0.194008 0.000000 0.000000 0.000000
-0.097805 -0.566352 0.194104 0.000000 0.000000 0.000000
-0.085348 -0.566352 0.196766 0.000000 0.000000 0.000000
-0.074075 -0.566352 0.195104 0.000000 0.000000 0.000000
-0.061304 -0.566352 0.196644 0.000000 0.000000 0.000000
-0.050852 -0.566352 0.194798 0.000000 0.000000 0.000000
-0.035911 -0.566352 0.194644 0.000000 0.000000 0.000000
-0.027222 -0.566352 0.195599 0.000000 0.000000 0.000000
-0.013442 -0.566352 0.196925 0.000000 0.000000 0.000000
-0.001707 -0.566352 0.195205 0.000000 0.000000 0.000000
0.008625 -0.566352 0.196053 0.000000 0.000000 0.000000
0.024221 -0.566352 0.195801 0.000000 0.000000 0.000000
0.033613 -0.566352 0.195502 0.000000 0.000000 0.000000
0.046534 -0.566352 0.194787 0.000000 0.000000 0.000000
0.059090 -0.566352 0.194803 0.000000 0.000000 0.000000
0.071054 -0.566352 0.195129 0.000000 0.000000 0.000000
0.082505 -0.566352 0.195728 0.000000 0.000000 0.000000
0.094569 -0.566352 0.194896 0.000000 0.000000 0.000000
0.106105 -0.566352 0.195886 0.000000 0.000000 0.000000
0.116670 -0.566352 0.195653 0.000000 0.000000 0.000000
0.131085 -0.566352 0.195307 0.000000 0.000000 0.000000
0.142288 -0.564205 0.194795 0.000000 0.000000 0.000000
0.151730 -0.561081 0.198436 0.000000 0.000000 0.000000
-0.118396 -0.547333 0.197653 0.000000 0.000000 0.000000
-0.113260 -0.548176 0.191262 0.000000 0.000000 0.000000
0.145398 -0.547340 0.191278 0.000000 0.000000 0.000000
0.151241 -0.549696 0.197658 0.000000 0.000000 0.000000
-0.116560 -0.542328 0.197287 0.000000 0.000000 0.000000
-0.110536 -0.542328 0.195084 0.000000 0.000000 0.000000
-0.099359 -0.542328 0.195274 0.000000 0.000000 0.000000
-0.086447 -0.542328 0.194423 0.000000 0.000000 0.000000
-0.074642 -0.542328 0.195049 0.000000 0.000000 0.000000
-0.062151 -0.542328 0.196700 0.000000 0.000000 0.000000
-0.050290 -0.542328 0.196686 0.000000 0.000000 0.000000
-0.037066 -0.542328 0.193999 0.000000 0.000000 0.000000
-0.025744 -0.542328 0.195429 0.000000 0.000000 0.000000
-0.014602 -0.542328 0.194864 0.000000 0.000000 0.000000
-0.001189 -0.542328 0.196754 0.000000 0.000000 0.000000
0.010069 -0.542328 0.195956 0.000000 0.000000 0.000000
0.022033 -0.542328 0.195888 0.000000 0.000000 0.000000
0.034027 -0.542328 0.195526 0.000000 0.000000 0.000000
0.047569 -0.542328 0.194998 0.000000 0.000000 0.000000
0.058530 -0.542328 0.194771 0.000000 0.000000 0.000000
0.070974 -0.542328 0.194228 0.000000 0.000000 0.000000
0.082077 -0.542328 0.194617 0.000000 0.000000 0.000000
0.095747 -0.542328 0.195474 0.000000 0.000000 0.000000
0.105814 -0.542328 0.194665 0.000000 0.000000 0.000000
0.118017 -0.542328 0.195044 0.000000 0.000000 0.000000
0.129127 -0.542328 0.194091 0.000000 0.000000 0.000000
0.141716 -0.542328 0.196846 0.000000 0.000000 0.000000
0.149026 -0.542328 0.196241 0.000000 0.000000 0.000000
-0.001256 -0.038703 0.200541 0.000000 0.000000 0.000000
-0.001942 -0.032353 0.196334 0.000000 0.000000 0.000000
0.004473 -0.030983 0.195236 0.000000 0.000000 0.000000
-0.001159 -0.025086 0.193716 0.000000 0.000000 0.000000
-0.121899 -0.563056 0.207607 0.000000 0.000000 0.000000
-0.106570 -0.566352 0.205783 0.000000 0.000000 0.000000
-0.098467 -0.566352 0.208256 0.000000 0.000000 0.000000
-0.085215 -0.566352 0.205208 0.000000 0.000000 0.000000
-0.071529 -0.566352 0.208854 0.000000 0.000000 0.000000
-0.062813 -0.566352 0.207331 0.000000 0.000000 0.000000
-0.049636 -0.566352 0.208574 0.000000 0.000000 0.000000
-0.038153 -0.566352 0.207284 0.000000 0.000000 0.000000
-0.025106 -0.566352 0.207073 0.000000 0.000000 0.000000
-0.013987 -0.566352 0.207576 0.000000 0.000000 0.000000
-0.000432 -0.566352 0.208003 0.000000 0.000000 0.000000
0.010918 -0.566352 0.208252 0.000000 0.000000 0.000000
0.022244 -0.566352 0.206382 0.000000 0.000000 0.000000
0.033811 -0.566352 0.206325 0.000000 0.000000 0.000000
0.046742 -0.566352 0.207025 0.000000 0.000000 0.000000
0.059623 -0.566352 0.208142 0.000000 0.000000 0.000000
0.068718 -0.566352 0.208655 0.000000 0.000000 0.000000
0.082781 -0.566352 0.207449 0.000000 0.000000 0.000000
0.095305 -0.566352 0.207996 0.000000 0.000000 0.000000
0.106131 -0.566352 0.208212 0.000000 0.000000 0.000000
0.118379 -0.566352 0.206245 0.000000 0.000000 0.000000
0.132203 -0.566352 0.207912 0.000000 0.000000 0.000000
0.141723 -0.566352 0.208959 0.000000 0.000000 0.000000
0.155735 -0.562385 0.207637 0.000000 0.000000 0.000000
-0.123356 -0.547613 0.205896 0.000000 0.000000 0.000000
0.156668 -0.548903 0.206410 0.000000 0.000000 0.000000
0.160463 -0.543896 0.213190 0.000000 0.000000 0.000000
-0.120415 -0.542328 0.208751 0.000000 0.000000 0.000000
-0.111408 -0.542328 0.207286 0.000000 0.000000 0.000000
-0.098755 -0.542328 0.205965 0.000000 0.000000 0.000000
-0.086377 -0.542328 0.205614 0.000000 0.000000 0.000000
-0.073917 -0.542328 0.207270 0.000000 0.000000 0.000000
-0.061547 -0.542328 0.206055 0.000000 0.000000 0.000000
-0.049360 -0.542328 0.207187 0.000000 0.000000 0.000000
-0.038640 -0.542328 0.208562 0.000000 0.000000 0.000000
-0.025181 -0.542328 0.206977 0.000000 0.000000 0.000000
-0.014402 -0.542328 0.206911 0.000000 0.000000 0.000000
-0.001890 -0.542328 0.207662 0.000000 0.000000 0.000000
0.011767 -0.542328 0.207105 0.000000 0.000000 0.000000
0.023744 -0.542328 0.207101 0.000000 0.000000 0.000000
0.032996 -0.542328 0.207211 0.000000 0.000000 0.000000
0.046983 -0.542328 0.205638 0.000000 0.000000 0.000000
0.056028 -0.542328 0.207591 0.000000 0.000000 0.000000
0.070050 -0.542328 0.208358 0.000000 0.000000 0.000000
0.083188 -0.542328 0.208654 0.000000 0.000000 0.000000
0.095662 -0.542328 0.207214 0.000000 0.000000 0.000000
0.107696 -0.542328 0.208002 0.000000 0.000000 0.000000
0.117032 -0.542328 0.206346 0.000000 0.000000 0.000000
0.130545 -0.542328 0.207425 0.000000 0.000000 0.000000
0.142031 -0.542328 0.207759 0.000000 0.000000 0.000000
0.152483 -0.542328 0.208608 0.000000 0.000000 0.000000
-0.000637 -0.040942 0.208804 0.000000 0.000000 0.000000
-0.002732 -0.032969 0.207000 0.000000 0.000000 0.000000
0.004505 -0.036430 0.210068 0.000000 0.000000 0.000000
-0.131377 -0.560644 0.220146 0.000000 0.000000 0.000000
-0.122437 -0.566352 0.218803 0.000000 0.000000 0.000000
-0.109359 -0.566352 0.221217 0.000000 0.000000 0.000000
-0.098905 -0.566352 0.219066 0.000000 0.000000 0.000000
-0.085603 -0.566352 0.219278 0.000000 0.000000 0.000000
-0.073254 -0.566352 0.220278 0.000000 0.000000 0.000000
-0.062086 -0.566352 0.219484 0.000000 0.000000 0.000000
-0.050050 -0.566352 0.219206 0.000000 0.000000 0.000000
-0.037122 -0.566352 0.217286 0.000000 0.000000 0.000000
-0.026754 -0.566352 0.219734 0.000000 0.000000 0.000000
-0.013976 -0.566352 0.218804 0.000000 0.000000 0.000000
-0.001835 -0.566352 0.218686 0.000000 0.000000 0.000000
0.009737 -0.566352 0.218984 0.000000 0.000000 0.000000
0.021471 -0.566352 0.217831 0.000000 0.000000 0.000000
0.033551 -0.566352 0.220438 0.000000 0.000000 0.000000
0.046280 -0.566352 0.219240 0.000000 0.000000 0.000000
0.059724 -0.566352 0.219885 0.000000 0.000000 0.000000
0.067707 -0.566352 0.219612 0.000000 0.000000 0.000000
0.082230 -0.566352 0.219675 0.000000 0.000000 0.000000
0.094226 -0.566352 0.219198 0.000000 0.000000 0.000000
0.107546 -0.566352 0.219222 0.000000 0.000000 0.000000
0.119053 -0.566352 0.219395 0.000000 0.000000 0.000000
0.129343 -0.566352 0.219353 0.000000 0.000000 0.000000
0.142086 -0.566352 0.218023 0.000000 0.000000 0.000000
0.155452 -0.566352 0.218881 0.000000 0.000000 0.000000
0.163815 -0.561576 0.219879 0.000000 0.000000 0.000000
-0.132105 -0.548837 0.220596 0.000000 0.000000 0.000000
0.164418 -0.546224 0.220255 0.000000 0.000000 0.000000
-0.129925 -0.542328 0.221203 0.000000 0.000000 0.000000
-0.123556 -0.542328 0.219747 0.000000 0.000000 0.000000
-0.108906 -0.542328 0.218984 0.000000 0.000000 0.000000
-0.098549 -0.542328 0.220353 0.000000 0.000000 0.000000
-0.085502 -0.542328 0.218809 0.000000 0.000000 0.000000
-0.074149 -0.542328 0.218890 0.000000 0.000000 0.000000
-0.061570 -0.542328 0.219086 0.000000 0.000000 0.000000
-0.050324 -0.542328 0.220357 0.000000 0.000000 0.000000
-0.038105 -0.542328 0.220390 0.000000 0.000000 0.000000
-0.024885 -0.542328 0.218657 0.000000 0.000000 0.000000
-0.013509 -0.542328 0.217544 0.000000 0.000000 0.000000
-0.002237 -0.542328 0.219019 0.000000 0.000000 0.000000
0.009135 -0.542328 0.220975 0.000000 0.000000 0.000000
0.021842 -0.542328 0.219159 0.000000 0.000000 0.000000
0.034678 -0.542328 0.218741 0.000000 0.000000 0.000000
0.046443 -0.542328 0.219599 0.000000 0.000000 0.000000
0.057430 -0.542328 0.220051 0.000000 0.000000 0.000000
0.070350 -0.542328 0.219971 0.000000 0.000000 0.000000
0.082786 -0.542328 0.219259 0.000000 0.000000 0.000000
0.093949 -0.542328 0.219139 0.000000 0.000000 0.000000
0.106615 -0.542328 0.219716 0.000000 0.000000 0.000000
0.117508 -0.542328 0.217619 0.000000 0.000000 0.000000
0.129145 -0.542328 0.221062 0.000000 0.000000 0.000000
0.140475 -0.542328 0.218932 0.000000 0.000000 0.000000
0.153472 -0.542328 0.218503 0.000000 0.000000 0.000000
0.162135 -0.542328 0.221333 0.000000 0.000000 0.000000
-0.002799 -0.044580 0.218985 0.000000 0.000000 0.000000
0.004515 -0.040592 0.217889 0.000000 0.000000 0.000000
-0.000370 -0.035842 0.218886 0.000000 0.000000 0.000000
-0.140011 -0.560844 0.235477 0.000000 0.000000 0.000000
-0.134302 -0.564008 0.230957 0.000000 0.000000 0.000000
-0.122021 -0.566352 0.231936 0.000000 0.000000 0.000000
-0.108810 -0.566352 0.231257 0.000000 0.000000 0.000000
-0.097246 -0.566352 0.231698 0.000000 0.000000 0.000000
-0.084719 -0.566352 0.230122 0.000000 0.000000 0.000000
-0.073910 -0.566352 0.231703 0.000000 0.000000 0.000000
-0.061536 -0.566352 0.231531 0.000000 0.000000 0.000000
-0.048852 -0.566352 0.231756 0.000000 0.000000 0.000000
-0.037905 -0.566352 0.232449 0.000000 0.000000 0.000000
-0.026075 -0.566352 0.231169 0.000000 0.000000 0.000000
-0.014153 -0.566352 0.232572 0.000000 0.000000 0.000000
-0.001347 -0.566352 0.230890 0.000000 0.000000 0.000000
0.011051 -0.566352 0.231681 0.000000 0.000000 0.000000
0.023573 -0.566352 0.230030 0.000000 0.000000 0.000000
0.034167 -0.566352 0.231927 0.000000 0.000000 0.000000
0.048158 -0.566352 0.231403 0.000000 0.000000 0.000000
0.059131 -0.566352 0.230541 0.000000 0.000000 0.000000
0.070047 -0.566352 0.228810 0.000000 0.000000 0.000000
0.080580 -0.566352 0.231344 0.000000 0.000000 0.000000
0.093873 -0.566352 0.232119 0.000000 0.000000 0.000000
0.106334 -0.566352 0.230277 0.000000 0.000000 0.000000
0.117950 -0.566352 0.231036 0.000000 0.000000 0.000000
0.130865 -0.566352 0.230493 0.000000 0.000000 0.000000
0.143455 -0.566352 0.231295 0.000000 0.000000 0.000000
0.154258 -0.566352 0.230947 0.000000 0.000000 0.000000
0.166122 -0.563787 0.230503 0.000000 0.000000 0.000000
0.173082 -0.558643 0.235797 0.000000 0.000000 0.000000
-0.140185 -0.547843 0.236093 0.000000 0.000000 0.000000
-0.138471 -0.549831 0.231449 0.000000 0.000000 0.000000
0.170467 -0.548332 0.231062 0.000000 0.000000 0.000000
-0.133825 -0.542328 0.232029 0.000000 0.000000 0.000000
-0.121600 -0.542328 0.231061 0.000000 0.000000 0.000000
-0.111357 -0.542328 0.231129 0.000000 0.000000 0.000000
-0.097391 -0.542328 0.230466 0.000000 0.000000 0.000000
-0.085848 -0.542328 0.232505 0.000000 0.000000 0.000000
-0.074007 -0.542328 0.231236 0.000000 0.000000 0.000000
-0.061991 -0.542328 0.231851 0.000000 0.000000 0.000000
-0.050627 -0.542328 0.231276 0.000000 0.000000 0.000000
-0.037778 -0.542328 0.231218 0.000000 0.000000 0.000000
-0.025862 -0.542328 0.230779 0.000000 0.000000 0.000000
-0.012067 -0.542328 0.232055 0.000000 0.000000 0.000000
-0.002174 -0.542328 0.230363 0.000000 0.000000 0.000000
0.011162 -0.542328 0.231529 0.000000 0.000000 0.000000
0.022833 -0.542328 0.231208 0.000000 0.000000 0.000000
0.037019 -0.542328 0.232304 0.000000 0.000000 0.000000
0.046212 -0.542328 0.231202 0.000000 0.000000 0.000000
0.057475 -0.542328 0.230768 0.000000 0.000000 0.000000
0.071407 -0.542328 0.231622 0.000000 0.000000 0.000000
0.082493 -0.542328 0.230780 0.000000 0.000000 0.000000
0.095492 -0.542328 0.231506 0.000000 0.000000 0.000000
0.105556 -0.542328 0.230492 0.000000 0.000000 0.000000
0.118468 -0.542328 0.231243 0.000000 0.000000 0.000000
0.130519 -0.542328 0.231401 0.000000 0.000000 0.000000
0.142265 -0.542328 0.231476 0.000000 0.000000 0.000000
0.153406 -0.542328 0.229551 0.000000 0.000000 0.000000
0.166209 -0.542328 0.232395 0.000000 0.000000 0.000000
0.172674 -0.542328 0.236276 0.000000 0.000000 0.000000
-0.000934 -0.051996 0.232680 0.000000 0.000000 0.000000
-0.003231 -0.045369 0.231616 0.000000 0.000000 0.000000
0.004470 -0.046268 0.230433 0.000000 0.000000 0.000000
-0.141736 -0.560849 0.243088 0.000000 0.000000 0.000000
-0.134009 -0.566352 0.244093 0.000000 0.000000 0.000000
-0.122127 -0.566352 0.242749 0.000000 0.000000 0.000000
-0.110646 -0.566352 0.242554 0.000000 0.000000 0.000000
-0.098661 -0.566352 0.242540 0.000000 0.000000 0.000000
-0.086697 -0.566352 0.245562 0.000000 0.000000 0.000000
-0.073504 -0.566352 0.243384 0.000000 0.000000 0.000000
-0.062473 -0.566352 0.242098 0.000000 0.000000 0.000000
-0.048127 -0.566352 0.243505 0.000000 0.000000 0.000000
-0.037032 -0.566352 0.244783 0.000000 0.000000 0.000000
-0.026089 -0.566352 0.243706 0.000000 0.000000 0.000000
-0.015876 -0.566352 0.242765 0.000000 0.000000 0.000000
-0.003007 -0.566352 0.243157 0.000000 0.000000 0.000000
0.010257 -0.566352 0.244025 0.000000 0.000000 0.000000
0.021036 -0.566352 0.244846 0.000000 0.000000 0.000000
0.034731 -0.566352 0.244664 0.000000 0.000000 0.000000
0.044600 -0.566352 0.243730 0.000000 0.000000 0.000000
0.055329 -0.566352 0.242144 0.000000 0.000000 0.000000
0.070663 -0.566352 0.243147 0.000000 0.000000 0.000000
0.081661 -0.566352 0.242281 0.000000 0.000000 0.000000
0.094339 -0.566352 0.243063 0.000000 0.000000 0.000000
0.106689 -0.566352 0.241519 0.000000 0.000000 0.000000
0.117312 -0.566352 0.242251 0.000000 0.000000 0.000000
0.130174 -0.566352 0.243646 0.000000 0.000000 0.000000
0.142602 -0.566352 0.244825 0.000000 0.000000 0.000000
0.154692 -0.566352 0.242722 0.000000 0.000000 0.000000
0.166692 -0.566352 0.243725 0.000000 0.000000 0.000000
0.174916 -0.563786 0.243270 0.000000 0.000000 0.000000
-0.142333 -0.547981 0.243703 0.000000 0.000000 0.000000
0.175144 -0.548089 0.242816 0.000000 0.000000 0.000000
-0.140710 -0.542328 0.244284 0.000000 0.000000 0.000000
-0.134080 -0.542328 0.244107 0.000000 0.000000 0.000000
-0.121474 -0.542328 0.243335 0.000000 0.000000 0.000000
-0.108823 -0.542328 0.244153 0.000000 0.000000 0.000000
-0.097734 -0.542328 0.243773 0.000000 0.000000 0.000000
-0.085713 -0.542328 0.242990 0.000000 0.000000 0.000000
-0.075128 -0.542328 0.242427 0.000000 0.000000 0.000000
-0.062157 -0.542328 0.241657 0.000000 0.000000 0.000000
-0.048145 -0.542328 0.245203 0.000000 0.000000 0.000000
-0.039329 -0.542328 0.243158 0.000000 0.000000 0.000000
-0.027001 -0.542328 0.243265 0.000000 0.000000 0.000000
-0.016585 -0.542328 0.243999 0.000000 0.000000 0.000000
-0.000698 -0.542328 0.241596 0.000000 0.000000 0.000000
0.012094 -0.542328 0.243168 0.000000 0.000000 0.000000
0.023360 -0.542328 0.242915 0.000000 0.000000 0.000000
0.035307 -0.542328 0.243721 0.000000 0.000000 0.000000
0.046704 -0.542328 0.243607 0.000000 0.000000 0.000000
0.058315 -0.542328 0.241934 0.000000 0.000000 0.000000
0.071511 -0.542328 0.243816 0.000000 0.000000 0.000000
0.081388 -0.542328 0.244269 0.000000 0.000000 0.000000
0.093388 -0.542328 0.244766 0.000000 0.000000 0.000000
0.107058 -0.542328 0.242218 0.000000 0.000000 0.000000
0.115325 -0.542328 0.242266 0.000000 0.000000 0.000000
0.130144 -0.542328 0.242784 0.000000 0.000000 0.000000
0.142377 -0.542328 0.241538 0.000000 0.000000 0.000000
0.154318 -0.542328 0.240795 0.000000 0.000000 0.000000
0.165791 -0.542328 0.241557 0.000000 0.000000 0.000000
0.173640 -0.542328 0.237439 0.000000 0.000000 0.000000
-0.002406 -0.055265 0.244058 0.000000 0.000000 0.000000
0.004425 -0.052517 0.243698 0.000000 0.000000 0.000000
-0.001699 -0.048127 0.244548 0.000000 0.000000 0.000000
0.004379 -0.049670 0.242017 0.000000 0.000000 0.000000
-0.144769 -0.562845 0.256669 0.000000 0.000000 0.000000
-0.133135 -0.566352 0.255439 0.000000 0.000000 0.000000
-0.122909 -0.566352 0.256455 0.000000 0.000000 0.000000
-0.109629 -0.566352 0.255951 0.000000 0.000000 0.000000
-0.098686 -0.566352 0.254494 0.000000 0.000000 0.000000
-0.085577 -0.566352 0.255279 0.000000 0.000000 0.000000
-0.073764 -0.566352 0.255728 0.000000 0.000000 0.000000
-0.064648 -0.566352 0.253407 0.000000 0.000000 0.000000
-0.048729 -0.566352 0.256312 0.000000 0.000000 0.000000
-0.037977 -0.566352 0.255134 0.000000 0.000000 0.000000
-0.024993 -0.566352 0.253707 0.000000 0.000000 0.000000
-0.014427 -0.566352 0.255274 0.000000 0.000000 0.000000
-0.001502 -0.566352 0.255538 0.000000 0.000000 0.000000
0.008961 -0.566352 0.254007 0.000000 0.000000 0.000000
0.022407 -0.566352 0.255599 0.000000 0.000000 0.000000
0.034529 -0.566352 0.256085 0.000000 0.000000 0.000000
0.046679 -0.566352 0.255434 0.000000 0.000000 0.000000
0.057537 -0.566352 0.254225 0.000000 0.000000 0.000000
0.070958 -0.566352 0.256577 0.000000 0.000000 0.000000
0.080239 -0.566352 0.256674 0.000000 0.000000 0.000000
0.094704 -0.566352 0.254630 0.000000 0.000000 0.000000
0.107013 -0.566352 0.254992 0.000000 0.000000 0.000000
0.117901 -0.566352 0.254800 0.000000 0.000000 0.000000
0.130174 -0.566352 0.254065 0.000000 0.000000 0.000000
0.141776 -0.566352 0.255449 0.000000 0.000000 0.000000
0.153534 -0.566352 0.255295 0.000000 0.000000 0.000000
0.166995 -0.566352 0.255473 0.000000 0.000000 0.000000
0.177533 -0.560977 0.254721 0.000000 0.000000 0.000000
-0.145398 -0.549649 0.254559 0.000000 0.000000 0.000000
0.178410 -0.548036 0.255686 0.000000 0.000000 0.000000
-0.144027 -0.542328 0.254692 0.000000 0.000000 0.000000
-0.134129 -0.542328 0.254198 0.000000 0.000000 0.000000
-0.122785 -0.542328 0.255010 0.000000 0.000000 0.000000
-0.110774 -0.542328 0.257123 0.000000 0.000000 0.000000
-0.097028 -0.542328 0.255701 0.000000 0.000000 0.000000
-0.084889 -0.542328 0.255463 0.000000 0.000000 0.000000
-0.074815 -0.542328 0.253805 0.000000 0.000000 0.000000
-0.063292 -0.542328 0.252841 0.000000 0.000000 0.000000
-0.049306 -0.542328 0.254994 0.000000 0.000000 0.000000
-0.038253 -0.542328 0.255629 0.000000 0.000000 0.000000
-0.025032 -0.542328 0.255919 0.000000 0.000000 0.000000
-0.014794 -0.542328 0.255715 0.000000 0.000000 0.000000
-0.000956 -0.542328 0.255126 0.000000 0.000000 0.000000
0.010782 -0.542328 0.253989 0.000000 0.000000 0.000000
0.021732 -0.542328 0.254700 0.000000 0.000000 0.000000
0.034254 -0.542328 0.253922 0.000000 0.000000 0.000000
0.045979 -0.542328 0.255824 0.000000 0.000000 0.000000
0.059411 -0.542328 0.254675 0.000000 0.000000 0.000000
0.070505 -0.542328 0.255513 0.000000 0.000000 0.000000
0.083184 -0.542328 0.255495 0.000000 0.000000 0.000000
0.093309 -0.542328 0.255910 0.000000 0.000000 0.000000
0.104705 -0.542328 0.254131 0.000000 0.000000 0.000000
0.118275 -0.542328 0.254852 0.000000 0.000000 0.000000
0.131029 -0.542328 0.253165 0.000000 0.000000 0.000000
0.140499 -0.542328 0.255672 0.000000 0.000000 0.000000
0.153371 -0.542328 0.254436 0.000000 0.000000 0.000000
0.165990 -0.542328 0.255492 0.000000 0.000000 0.000000
0.176221 -0.542328 0.257543 0.000000 0.000000 0.000000
-0.000134 -0.064174 0.258252 0.000000 0.000000 0.000000
-0.001976 -0.056259 0.254754 0.000000 0.000000 0.000000
0.004416 -0.057510 0.254715 0.000000 0.000000 0.000000
-0.000953 -0.049540 0.251621 0.000000 0.000000 0.000000
-0.146842 -0.562143 0.267336 0.000000 0.000000 0.000000
-0.132090 -0.566352 0.268670 0.000000 0.000000 0.000000
-0.122262 -0.566352 0.268144 0.000000 0.000000 0.000000
-0.109450 -0.566352 0.267235 0.000000 0.000000 0.000000
-0.097491 -0.566352 0.267167 0.000000 0.000000 0.000000
-0.085993 -0.566352 0.267801 0.000000 0.000000 0.000000
-0.073701 -0.566352 0.267068 0.000000 0.000000 0.000000
-0.060052 -0.566352 0.267609 0.000000 0.000000 0.000000
-0.049514 -0.566352 0.268105 0.000000 0.000000 0.000000
-0.038116 -0.566352 0.266637 0.000000 0.000000 0.000000
-0.026177 -0.566352 0.266663 0.000000 0.000000 0.000000
-0.014028 -0.566352 0.266266 0.000000 0.000000 0.000000
-0.001211 -0.566352 0.267649 0.000000 0.000000 0.000000
0.012016 -0.566352 0.267681 0.000000 0.000000 0.000000
0.022025 -0.566352 0.267565 0.000000 0.000000 0.000000
0.034475 -0.566352 0.266824 0.000000 0.000000 0.000000
0.048207 -0.566352 0.266928 0.000000 0.000000 0.000000
0.057971 -0.566352 0.266407 0.000000 0.000000 0.000000
0.072290 -0.566352 0.267841 0.000000 0.000000 0.000000
0.082478 -0.566352 0.268886 0.000000 0.000000 0.000000
0.093872 -0.566352 0.267838 0.000000 0.000000 0.000000
0.106803 -0.566352 0.267576 0.000000 0.000000 0.000000
0.118583 -0.566352 0.267351 0.000000 0.000000 0.000000
0.129900 -0.566352 0.267734 0.000000 0.000000 0.000000
0.141546 -0.566352 0.266817 0.000000 0.000000 0.000000
0.154645 -0.566352 0.268372 0.000000 0.000000 0.000000
0.165587 -0.566352 0.267770 0.000000 0.000000 0.000000
0.179556 -0.563517 0.268219 0.000000 0.000000 0.000000
-0.149182 -0.548291 0.267968 0.000000 0.000000 0.000000
0.181474 -0.547539 0.267759 0.000000 0.000000 0.000000
-0.143710 -0.542328 0.266035 0.000000 0.000000 0.000000
-0.134563 -0.542328 0.267426 0.000000 0.000000 0.000000
-0.120529 -0.542328 0.267691 0.000000 0.000000 0.000000
-0.109996 -0.542328 0.266154 0.000000 0.000000 0.000000
-0.097980 -0.542328 0.266657 0.000000 0.000000 0.000000
-0.084665 -0.542328 0.268865 0.000000 0.000000 0.000000
-0.073479 -0.542328 0.266417 0.000000 0.000000 0.000000
-0.061388 -0.542328 0.266861 0.000000 0.000000 0.000000
-0.049865 -0.542328 0.267838 0.000000 0.000000 0.000000
-0.036615 -0.542328 0.265675 0.000000 0.000000 0.000000
-0.025262 -0.542328 0.265682 0.000000 0.000000 0.000000
-0.012241 -0.542328 0.267340 0.000000 0.000000 0.000000
-0.000572 -0.542328 0.266667 0.000000 0.000000 0.000000
0.010239 -0.542328 0.267480 0.000000 0.000000 0.000000
0.021544 -0.542328 0.264093 0.000000 0.000000 0.000000
0.033827 -0.542328 0.268521 0.000000 0.000000 0.000000
0.046512 -0.542328 0.267365 0.000000 0.000000 0.000000
0.056023 -0.542328 0.266548 0.000000 0.000000 0.000000
0.070924 -0.542328 0.266592 0.000000 0.000000 0.000000
0.082583 -0.542328 0.268707 0.000000 0.000000 0.000000
0.096143 -0.542328 0.267245 0.000000 0.000000 0.000000
0.105949 -0.542328 0.267767 0.000000 0.000000 0.000000
0.116105 -0.542328 0.267545 0.000000 0.000000 0.000000
0.130172 -0.542328 0.270119 0.000000 0.000000 0.000000
0.141328 -0.542328 0.266730 0.000000 0.000000 0.000000
