ply
format ascii 1.0
element vertex 874
property float x
property float y
property float z
property float nx
property float ny
property float nz
end_header
-0.401377 0.061182 -0.031591 0.000000 0.000000 0.000000
-0.384715 0.061502 -0.031588 0.000000 0.000000 0.000000
-0.367201 0.060373 -0.031504 0.000000 0.000000 0.000000
-0.352057 0.060385 -0.031205 0.000000 0.000000 0.000000
-0.334099 0.060843 -0.031068 0.000000 0.000000 0.000000
-0.316497 0.061568 -0.032425 0.000000 0.000000 0.000000
-0.298881 0.060603 -0.031696 0.000000 0.000000 0.000000
-0.282968 0.059465 -0.032437 0.000000 0.000000 0.000000
-0.265435 0.059982 -0.032049 0.000000 0.000000 0.000000
-0.249212 0.061084 -0.031545 0.000000 0.000000 0.000000
-0.230258 0.059578 -0.032043 0.000000 0.000000 0.000000
-0.214323 0.061280 -0.030193 0.000000 0.000000 0.000000
-0.197278 0.059489 -0.031670 0.000000 0.000000 0.000000
-0.181167 0.061019 -0.031112 0.000000 0.000000 0.000000
-0.164188 0.059246 -0.031726 0.000000 0.000000 0.000000
-0.145242 0.060206 -0.031836 0.000000 0.000000 0.000000
-0.128602 0.062294 -0.031186 0.000000 0.000000 0.000000
-0.112094 0.059592 -0.031694 0.000000 0.000000 0.000000
-0.094526 0.059379 -0.031134 0.000000 0.000000 0.000000
-0.077909 0.059410 -0.031637 0.000000 0.000000 0.000000
-0.062423 0.060206 -0.031704 0.000000 0.000000 0.000000
-0.045036 0.059738 -0.032337 0.000000 0.000000 0.000000
-0.027177 0.060286 -0.031873 0.000000 0.000000 0.000000
-0.011143 0.060315 -0.031194 0.000000 0.000000 0.000000
0.007735 0.061001 -0.032408 0.000000 0.000000 0.000000
0.023949 0.060646 -0.030368 0.000000 0.000000 0.000000
0.039528 0.061797 -0.030897 0.000000 0.000000 0.000000
0.057577 0.058966 -0.031374 0.000000 0.000000 0.000000
0.074354 0.059765 -0.032052 0.000000 0.000000 0.000000
0.090027 0.060915 -0.030606 0.000000 0.000000 0.000000
0.108251 0.059370 -0.032895 0.000000 0.000000 0.000000
0.124503 0.058483 -0.031921 0.000000 0.000000 0.000000
0.141791 0.060114 -0.031377 0.000000 0.000000 0.000000
0.159694 0.060363 -0.032239 0.000000 0.000000 0.000000
0.176005 0.060781 -0.030186 0.000000 0.000000 0.000000
0.192857 0.060206 -0.031690 0.000000 0.000000 0.000000
0.210480 0.059958 -0.032402 0.000000 0.000000 0.000000
0.227824 0.061431 -0.031734 0.000000 0.000000 0.000000
0.243706 0.060630 -0.032115 0.000000 0.000000 0.000000
0.260228 0.060048 -0.031860 0.000000 0.000000 0.000000
0.279494 0.060397 -0.032334 0.000000 0.000000 0.000000
0.295242 0.059416 -0.031641 0.000000 0.000000 0.000000
0.313296 0.062184 -0.031837 0.000000 0.000000 0.000000
0.329239 0.059310 -0.030840 0.000000 0.000000 0.000000
0.346111 0.061132 -0.031474 0.000000 0.000000 0.000000
0.363903 0.060114 -0.031738 0.000000 0.000000 0.000000
0.380229 0.059416 -0.031435 0.000000 0.000000 0.000000
0.397663 0.060927 -0.032217 0.000000 0.000000 0.000000
0.413712 0.061203 -0.032109 0.000000 0.000000 0.000000
-0.411577 0.071755 -0.031551 0.000000 0.000000 0.000000
-0.402191 0.073634 -0.032304 0.000000 0.000000 0.000000
-0.383202 0.073634 -0.032938 0.000000 0.000000 0.000000
-0.370035 0.073634 -0.032201 0.000000 0.000000 0.000000
-0.350957 0.073634 -0.031623 0.000000 0.000000 0.000000
-0.333906 0.073634 -0.030894 0.000000 0.000000 0.000000
-0.314468 0.073634 -0.033323 0.000000 0.000000 0.000000
-0.299070 0.073634 -0.032238 0.000000 0.000000 0.000000
-0.283150 0.073634 -0.031292 0.000000 0.000000 0.000000
-0.266585 0.073634 -0.033021 0.000000 0.000000 0.000000
-0.248161 0.073634 -0.032391 0.000000 0.000000 0.000000
-0.231589 0.073634 -0.032908 0.000000 0.000000 0.000000
-0.213283 0.073634 -0.030588 0.000000 0.000000 0.000000
-0.197225 0.073634 -0.031131 0.000000 0.000000 0.000000
-0.180653 0.073634 -0.031849 0.000000 0.000000 0.000000
-0.162683 0.073634 -0.030700 0.000000 0.000000 0.000000
-0.146317 0.073634 -0.032881 0.000000 0.000000 0.000000
-0.128646 0.073634 -0.031841 0.000000 0.000000 0.000000
-0.110216 0.073634 -0.033492 0.000000 0.000000 0.000000
-0.095777 0.073634 -0.032078 0.000000 0.000000 0.000000
-0.078790 0.073634 -0.031705 0.000000 0.000000 0.000000
-0.061234 0.073634 -0.030110 0.000000 0.000000 0.000000
-0.044510 0.073634 -0.031516 0.000000 0.000000 0.000000
-0.027248 0.073634 -0.032725 0.000000 0.000000 0.000000
-0.010478 0.073634 -0.032303 0.000000 0.000000 0.000000
0.005395 0.073634 -0.030721 0.000000 0.000000 0.000000
0.023189 0.073634 -0.030103 0.000000 0.000000 0.000000
0.040375 0.073634 -0.030579 0.000000 0.000000 0.000000
0.057747 0.073634 -0.032296 0.000000 0.000000 0.000000
0.073973 0.073634 -0.030862 0.000000 0.000000 0.000000
0.091197 0.073634 -0.033277 0.000000 0.000000 0.000000
0.111074 0.073634 -0.031841 0.000000 0.000000 0.000000
0.124591 0.073634 -0.033407 0.000000 0.000000 0.000000
0.140669 0.073634 -0.032204 0.000000 0.000000 0.000000
0.158317 0.073634 -0.031824 0.000000 0.000000 0.000000
0.175587 0.073634 -0.030449 0.000000 0.000000 0.000000
0.192573 0.073634 -0.029953 0.000000 0.000000 0.000000
0.211267 0.073634 -0.032920 0.000000 0.000000 0.000000
0.226897 0.073634 -0.031556 0.000000 0.000000 0.000000
0.244514 0.073634 -0.031272 0.000000 0.000000 0.000000
0.261801 0.073634 -0.030056 0.000000 0.000000 0.000000
0.276926 0.073634 -0.031857 0.000000 0.000000 0.000000
0.293886 0.073634 -0.032384 0.000000 0.000000 0.000000
0.311279 0.073634 -0.031503 0.000000 0.000000 0.000000
0.329342 0.073634 -0.031668 0.000000 0.000000 0.000000
0.346614 0.073634 -0.032978 0.000000 0.000000 0.000000
0.363499 0.073634 -0.032467 0.000000 0.000000 0.000000
0.379342 0.073634 -0.032508 0.000000 0.000000 0.000000
0.399774 0.072171 -0.031506 0.000000 0.000000 0.000000
-0.420553 0.060318 -0.015447 0.000000 0.000000 0.000000
-0.402658 0.059522 -0.014041 0.000000 0.000000 0.000000
-0.384676 0.060048 -0.015581 0.000000 0.000000 0.000000
-0.367482 0.060479 -0.015397 0.000000 0.000000 0.000000
-0.350930 0.058813 -0.014389 0.000000 0.000000 0.000000
-0.332825 0.059327 -0.013855 0.000000 0.000000 0.000000
-0.316832 0.059219 -0.015393 0.000000 0.000000 0.000000
-0.300279 0.059204 -0.015342 0.000000 0.000000 0.000000
-0.283484 0.061062 -0.015015 0.000000 0.000000 0.000000
-0.265683 0.060843 -0.014225 0.000000 0.000000 0.000000
-0.249090 0.060973 -0.014965 0.000000 0.000000 0.000000
-0.230594 0.060906 -0.015014 0.000000 0.000000 0.000000
-0.214600 0.059847 -0.015045 0.000000 0.000000 0.000000
-0.196305 0.059668 -0.013748 0.000000 0.000000 0.000000
-0.179699 0.060086 -0.016142 0.000000 0.000000 0.000000
-0.163233 0.059331 -0.014242 0.000000 0.000000 0.000000
-0.147062 0.061118 -0.015151 0.000000 0.000000 0.000000
-0.129305 0.060679 -0.014647 0.000000 0.000000 0.000000
-0.113408 0.059880 -0.014578 0.000000 0.000000 0.000000
-0.096690 0.059717 -0.015357 0.000000 0.000000 0.000000
-0.077122 0.060086 -0.014817 0.000000 0.000000 0.000000
-0.061517 0.059991 -0.014241 0.000000 0.000000 0.000000
-0.044352 0.061087 -0.014743 0.000000 0.000000 0.000000
-0.027974 0.057903 -0.014020 0.000000 0.000000 0.000000
-0.010507 0.061399 -0.015016 0.000000 0.000000 0.000000
0.006495 0.059657 -0.014995 0.000000 0.000000 0.000000
0.022736 0.061001 -0.014794 0.000000 0.000000 0.000000
0.040736 0.060108 -0.015282 0.000000 0.000000 0.000000
0.056958 0.060355 -0.014912 0.000000 0.000000 0.000000
0.074836 0.060576 -0.013496 0.000000 0.000000 0.000000
0.091483 0.060206 -0.013947 0.000000 0.000000 0.000000
0.109199 0.059438 -0.013409 0.000000 0.000000 0.000000
0.124616 0.060606 -0.014578 0.000000 0.000000 0.000000
0.142443 0.060206 -0.014006 0.000000 0.000000 0.000000
0.158941 0.060206 -0.015335 0.000000 0.000000 0.000000
0.175229 0.060889 -0.013295 0.000000 0.000000 0.000000
0.192513 0.060488 -0.014794 0.000000 0.000000 0.000000
0.209542 0.059489 -0.014163 0.000000 0.000000 0.000000
0.227865 0.060632 -0.014706 0.000000 0.000000 0.000000
0.244433 0.059586 -0.013993 0.000000 0.000000 0.000000
0.262000 0.058942 -0.014023 0.000000 0.000000 0.000000
0.278972 0.061242 -0.014955 0.000000 0.000000 0.000000
0.295303 0.060886 -0.013989 0.000000 0.000000 0.000000
0.312423 0.060781 -0.015211 0.000000 0.000000 0.000000
0.330003 0.059644 -0.014108 0.000000 0.000000 0.000000
0.346895 0.059686 -0.015272 0.000000 0.000000 0.000000
0.362578 0.061213 -0.014669 0.000000 0.000000 0.000000
0.380297 0.060294 -0.014425 0.000000 0.000000 0.000000
0.397390 0.060465 -0.014917 0.000000 0.000000 0.000000
0.414621 0.059043 -0.014956 0.000000 0.000000 0.000000
-0.411929 0.071014 -0.012819 0.000000 0.000000 0.000000
-0.401484 0.073634 -0.014187 0.000000 0.000000 0.000000
-0.384849 0.073634 -0.014700 0.000000 0.000000 0.000000
-0.366815 0.073634 -0.016472 0.000000 0.000000 0.000000
-0.351456 0.073634 -0.015911 0.000000 0.000000 0.000000
-0.334260 0.073634 -0.013535 0.000000 0.000000 0.000000
-0.316818 0.073634 -0.015439 0.000000 0.000000 0.000000
-0.300605 0.073634 -0.014039 0.000000 0.000000 0.000000
-0.283607 0.073634 -0.013363 0.000000 0.000000 0.000000
-0.266300 0.073634 -0.014904 0.000000 0.000000 0.000000
-0.249837 0.073634 -0.015167 0.000000 0.000000 0.000000
-0.232574 0.073634 -0.013427 0.000000 0.000000 0.000000
-0.214683 0.073634 -0.015686 0.000000 0.000000 0.000000
-0.197601 0.073634 -0.015658 0.000000 0.000000 0.000000
-0.181152 0.073634 -0.016302 0.000000 0.000000 0.000000
-0.162766 0.073634 -0.015130 0.000000 0.000000 0.000000
-0.148212 0.073634 -0.014646 0.000000 0.000000 0.000000
-0.128666 0.073634 -0.013921 0.000000 0.000000 0.000000
-0.112297 0.073634 -0.015753 0.000000 0.000000 0.000000
-0.096767 0.073634 -0.014963 0.000000 0.000000 0.000000
-0.077731 0.073634 -0.016166 0.000000 0.000000 0.000000
-0.059985 0.073634 -0.013593 0.000000 0.000000 0.000000
-0.044604 0.073634 -0.013986 0.000000 0.000000 0.000000
-0.027996 0.073634 -0.016276 0.000000 0.000000 0.000000
-0.011260 0.073634 -0.013521 0.000000 0.000000 0.000000
0.005973 0.073634 -0.015572 0.000000 0.000000 0.000000
0.022529 0.073634 -0.014764 0.000000 0.000000 0.000000
0.040441 0.073634 -0.014768 0.000000 0.000000 0.000000
0.058693 0.073634 -0.013974 0.000000 0.000000 0.000000
0.074416 0.073634 -0.014424 0.000000 0.000000 0.000000
0.092379 0.073634 -0.015160 0.000000 0.000000 0.000000
0.108194 0.073634 -0.013646 0.000000 0.000000 0.000000
0.126697 0.073634 -0.015001 0.000000 0.000000 0.000000
0.142208 0.073634 -0.012615 0.000000 0.000000 0.000000
0.159345 0.073634 -0.015034 0.000000 0.000000 0.000000
0.176803 0.073634 -0.013926 0.000000 0.000000 0.000000
0.192319 0.073634 -0.015172 0.000000 0.000000 0.000000
0.210260 0.073634 -0.014569 0.000000 0.000000 0.000000
0.226952 0.073634 -0.013394 0.000000 0.000000 0.000000
0.244126 0.073634 -0.014252 0.000000 0.000000 0.000000
0.261907 0.073634 -0.015840 0.000000 0.000000 0.000000
0.279286 0.073634 -0.014135 0.000000 0.000000 0.000000
0.294143 0.073634 -0.015486 0.000000 0.000000 0.000000
0.312430 0.073634 -0.015319 0.000000 0.000000 0.000000
0.330418 0.073634 -0.015381 0.000000 0.000000 0.000000
0.345408 0.073634 -0.014323 0.000000 0.000000 0.000000
0.364036 0.073634 -0.013901 0.000000 0.000000 0.000000
0.381464 0.073634 -0.013894 0.000000 0.000000 0.000000
0.399277 0.072440 -0.015197 0.000000 0.000000 0.000000
-0.420521 0.060787 0.002595 0.000000 0.000000 0.000000
-0.400350 0.060865 0.002451 0.000000 0.000000 0.000000
-0.383573 0.059717 0.002850 0.000000 0.000000 0.000000
-0.367973 0.060104 0.002390 0.000000 0.000000 0.000000
-0.349847 0.060453 0.001833 0.000000 0.000000 0.000000
-0.333364 0.059237 0.001915 0.000000 0.000000 0.000000
-0.316055 0.060206 0.002627 0.000000 0.000000 0.000000
-0.299134 0.061381 0.001482 0.000000 0.000000 0.000000
-0.282551 0.059835 0.001430 0.000000 0.000000 0.000000
-0.265054 0.060108 0.002070 0.000000 0.000000 0.000000
-0.248590 0.059870 0.002037 0.000000 0.000000 0.000000
-0.232532 0.059831 0.002147 0.000000 0.000000 0.000000
-0.212947 0.059686 0.000842 0.000000 0.000000 0.000000
-0.196849 0.058836 0.001986 0.000000 0.000000 0.000000
-0.179975 0.059346 0.002354 0.000000 0.000000 0.000000
-0.162581 0.060086 0.001968 0.000000 0.000000 0.000000
-0.146870 0.059738 0.002986 0.000000 0.000000 0.000000
-0.129780 0.059965 0.002937 0.000000 0.000000 0.000000
-0.112061 0.060311 0.001616 0.000000 0.000000 0.000000
-0.094748 0.060949 0.002669 0.000000 0.000000 0.000000
-0.077655 0.060206 0.001111 0.000000 0.000000 0.000000
-0.061148 0.060619 0.000758 0.000000 0.000000 0.000000
-0.043536 0.059327 0.002170 0.000000 0.000000 0.000000
-0.027543 0.059668 0.001550 0.000000 0.000000 0.000000
-0.010890 0.060100 0.003300 0.000000 0.000000 0.000000
0.007190 0.060603 0.002820 0.000000 0.000000 0.000000
0.023891 0.059808 0.001399 0.000000 0.000000 0.000000
0.040080 0.060915 0.001953 0.000000 0.000000 0.000000
0.057170 0.060206 0.003559 0.000000 0.000000 0.000000
0.074158 0.060603 0.002772 0.000000 0.000000 0.000000
0.090974 0.059258 0.002677 0.000000 0.000000 0.000000
0.108226 0.060395 0.003253 0.000000 0.000000 0.000000
0.124836 0.060694 0.003732 0.000000 0.000000 0.000000
0.142234 0.061153 0.002158 0.000000 0.000000 0.000000
0.159232 0.059982 0.002875 0.000000 0.000000 0.000000
0.175064 0.059413 0.003396 0.000000 0.000000 0.000000
0.192810 0.058168 0.002104 0.000000 0.000000 0.000000
0.209135 0.061808 0.001459 0.000000 0.000000 0.000000
0.228350 0.059586 0.002122 0.000000 0.000000 0.000000
0.244527 0.060653 0.002586 0.000000 0.000000 0.000000
0.261899 0.060125 0.002336 0.000000 0.000000 0.000000
0.278774 0.060453 0.002714 0.000000 0.000000 0.000000
0.296208 0.060446 0.000939 0.000000 0.000000 0.000000
0.313356 0.060548 0.003118 0.000000 0.000000 0.000000
0.327294 0.060461 0.001731 0.000000 0.000000 0.000000
0.346958 0.060032 0.002296 0.000000 0.000000 0.000000
0.363951 0.060206 0.003472 0.000000 0.000000 0.000000
0.380404 0.059650 0.001935 0.000000 0.000000 0.000000
0.398232 0.060065 0.003128 0.000000 0.000000 0.000000
0.414252 0.059658 0.002179 0.000000 0.000000 0.000000
-0.411966 0.070183 0.001405 0.000000 0.000000 0.000000
-0.402486 0.073634 0.002268 0.000000 0.000000 0.000000
-0.384444 0.073634 0.002252 0.000000 0.000000 0.000000
-0.369210 0.073634 0.002697 0.000000 0.000000 0.000000
-0.350136 0.073634 0.000971 0.000000 0.000000 0.000000
-0.333326 0.073634 0.002325 0.000000 0.000000 0.000000
-0.317700 0.073634 0.002063 0.000000 0.000000 0.000000
-0.298942 0.073634 0.002368 0.000000 0.000000 0.000000
-0.282365 0.073634 0.003412 0.000000 0.000000 0.000000
-0.266025 0.073634 0.002250 0.000000 0.000000 0.000000
-0.248729 0.073634 0.003132 0.000000 0.000000 0.000000
-0.231449 0.073634 0.001262 0.000000 0.000000 0.000000
-0.214719 0.073634 0.003344 0.000000 0.000000 0.000000
-0.199077 0.073634 0.003075 0.000000 0.000000 0.000000
-0.182002 0.073634 0.001675 0.000000 0.000000 0.000000
-0.163007 0.073634 0.003012 0.000000 0.000000 0.000000
-0.146443 0.073634 0.001323 0.000000 0.000000 0.000000
-0.130982 0.073634 0.003242 0.000000 0.000000 0.000000
-0.112408 0.073634 0.001942 0.000000 0.000000 0.000000
-0.095168 0.073634 0.002480 0.000000 0.000000 0.000000
-0.077600 0.073634 0.002938 0.000000 0.000000 0.000000
-0.063377 0.073634 0.001109 0.000000 0.000000 0.000000
-0.045931 0.073634 0.001658 0.000000 0.000000 0.000000
-0.028974 0.073634 0.004198 0.000000 0.000000 0.000000
-0.009409 0.073634 0.001934 0.000000 0.000000 0.000000
0.005414 0.073634 0.001731 0.000000 0.000000 0.000000
0.023000 0.073634 0.000813 0.000000 0.000000 0.000000
0.039639 0.073634 0.003385 0.000000 0.000000 0.000000
0.059243 0.073634 0.002993 0.000000 0.000000 0.000000
0.073896 0.073634 0.001598 0.000000 0.000000 0.000000
0.093992 0.073634 0.003117 0.000000 0.000000 0.000000
0.109912 0.073634 0.001290 0.000000 0.000000 0.000000
0.127534 0.073634 -0.000075 0.000000 0.000000 0.000000
0.141152 0.073634 0.002218 0.000000 0.000000 0.000000
0.160174 0.073634 0.002306 0.000000 0.000000 0.000000
0.175183 0.073634 0.002608 0.000000 0.000000 0.000000
0.192153 0.073634 0.002887 0.000000 0.000000 0.000000
0.210379 0.073634 0.002157 0.000000 0.000000 0.000000
0.227663 0.073634 0.001769 0.000000 0.000000 0.000000
0.244090 0.073634 0.002141 0.000000 0.000000 0.000000
0.260632 0.073634 0.003195 0.000000 0.000000 0.000000
0.277905 0.073634 0.004391 0.000000 0.000000 0.000000
0.295249 0.073634 0.001940 0.000000 0.000000 0.000000
0.312688 0.073634 0.000720 0.000000 0.000000 0.000000
0.328861 0.073634 0.002549 0.000000 0.000000 0.000000
0.346280 0.073634 0.003134 0.000000 0.000000 0.000000
0.363316 0.073634 0.001203 0.000000 0.000000 0.000000
0.381043 0.073634 0.003201 0.000000 0.000000 0.000000
0.399300 0.072273 0.003110 0.000000 0.000000 0.000000
-0.420574 0.060995 0.020211 0.000000 0.000000 0.000000
-0.401523 0.059468 0.021203 0.000000 0.000000 0.000000
-0.383854 0.058909 0.019080 0.000000 0.000000 0.000000
-0.367001 0.059732 0.020364 0.000000 0.000000 0.000000
-0.351311 0.059877 0.020122 0.000000 0.000000 0.000000
-0.334285 0.060725 0.020681 0.000000 0.000000 0.000000
-0.316444 0.061280 0.019883 0.000000 0.000000 0.000000
-0.299534 0.059679 0.019341 0.000000 0.000000 0.000000
-0.282964 0.059779 0.019645 0.000000 0.000000 0.000000
-0.264744 0.061340 0.018988 0.000000 0.000000 0.000000
-0.246966 0.061311 0.018877 0.000000 0.000000 0.000000
-0.230921 0.058863 0.019246 0.000000 0.000000 0.000000
-0.214273 0.059644 0.019873 0.000000 0.000000 0.000000
-0.196526 0.061311 0.019232 0.000000 0.000000 0.000000
-0.180250 0.058741 0.020462 0.000000 0.000000 0.000000
-0.163121 0.059525 0.020085 0.000000 0.000000 0.000000
-0.145779 0.059915 0.019440 0.000000 0.000000 0.000000
-0.128810 0.060391 0.019383 0.000000 0.000000 0.000000
-0.112940 0.061357 0.019904 0.000000 0.000000 0.000000
-0.095544 0.060576 0.019960 0.000000 0.000000 0.000000
-0.078865 0.061619 0.019959 0.000000 0.000000 0.000000
-0.062300 0.059776 0.019351 0.000000 0.000000 0.000000
-0.045458 0.060206 0.019045 0.000000 0.000000 0.000000
-0.025816 0.058780 0.019955 0.000000 0.000000 0.000000
-0.009988 0.060307 0.018932 0.000000 0.000000 0.000000
0.005999 0.061445 0.019755 0.000000 0.000000 0.000000
0.024360 0.060470 0.020130 0.000000 0.000000 0.000000
0.040837 0.060906 0.019111 0.000000 0.000000 0.000000
0.056392 0.059522 0.019967 0.000000 0.000000 0.000000
0.074824 0.059094 0.020595 0.000000 0.000000 0.000000
0.090873 0.060104 0.019018 0.000000 0.000000 0.000000
0.109230 0.060998 0.018996 0.000000 0.000000 0.000000
0.124893 0.060206 0.018052 0.000000 0.000000 0.000000
0.143292 0.060286 0.019970 0.000000 0.000000 0.000000
0.158965 0.060206 0.020243 0.000000 0.000000 0.000000
0.176234 0.060677 0.020038 0.000000 0.000000 0.000000
0.193867 0.060580 0.019281 0.000000 0.000000 0.000000
0.210575 0.061330 0.019104 0.000000 0.000000 0.000000
0.227631 0.060311 0.019785 0.000000 0.000000 0.000000
0.243894 0.061592 0.019645 0.000000 0.000000 0.000000
0.261019 0.061025 0.018500 0.000000 0.000000 0.000000
0.277973 0.059650 0.018924 0.000000 0.000000 0.000000
0.294536 0.060397 0.018557 0.000000 0.000000 0.000000
0.312220 0.060973 0.020231 0.000000 0.000000 0.000000
0.329087 0.061143 0.019434 0.000000 0.000000 0.000000
0.346061 0.060552 0.018564 0.000000 0.000000 0.000000
0.363242 0.059827 0.020361 0.000000 0.000000 0.000000
0.380630 0.061025 0.019706 0.000000 0.000000 0.000000
0.398768 0.060740 0.021238 0.000000 0.000000 0.000000
0.414717 0.060402 0.018530 0.000000 0.000000 0.000000
-0.411747 0.071410 0.018330 0.000000 0.000000 0.000000
-0.402406 0.073634 0.019750 0.000000 0.000000 0.000000
-0.384732 0.073634 0.019349 0.000000 0.000000 0.000000
-0.366512 0.073634 0.017900 0.000000 0.000000 0.000000
-0.351991 0.073634 0.019291 0.000000 0.000000 0.000000
-0.334913 0.073634 0.020591 0.000000 0.000000 0.000000
-0.316302 0.073634 0.018188 0.000000 0.000000 0.000000
-0.298971 0.073634 0.018625 0.000000 0.000000 0.000000
-0.282191 0.073634 0.019803 0.000000 0.000000 0.000000
-0.264693 0.073634 0.019301 0.000000 0.000000 0.000000
-0.246432 0.073634 0.018384 0.000000 0.000000 0.000000
-0.231011 0.073634 0.018691 0.000000 0.000000 0.000000
-0.214498 0.073634 0.018871 0.000000 0.000000 0.000000
-0.197968 0.073634 0.019219 0.000000 0.000000 0.000000
-0.180374 0.073634 0.019195 0.000000 0.000000 0.000000
-0.164959 0.073634 0.019891 0.000000 0.000000 0.000000
-0.146226 0.073634 0.019614 0.000000 0.000000 0.000000
-0.130607 0.073634 0.019553 0.000000 0.000000 0.000000
-0.112230 0.073634 0.019443 0.000000 0.000000 0.000000
-0.097758 0.073634 0.020773 0.000000 0.000000 0.000000
-0.078559 0.073634 0.020197 0.000000 0.000000 0.000000
-0.059734 0.073634 0.018789 0.000000 0.000000 0.000000
-0.046553 0.073634 0.018746 0.000000 0.000000 0.000000
-0.025308 0.073634 0.020530 0.000000 0.000000 0.000000
-0.012118 0.073634 0.020167 0.000000 0.000000 0.000000
0.006296 0.073634 0.019287 0.000000 0.000000 0.000000
0.022244 0.073634 0.018798 0.000000 0.000000 0.000000
0.039923 0.073634 0.019553 0.000000 0.000000 0.000000
0.057200 0.073634 0.019045 0.000000 0.000000 0.000000
0.075212 0.073634 0.019562 0.000000 0.000000 0.000000
0.091900 0.073634 0.019649 0.000000 0.000000 0.000000
0.109274 0.073634 0.020632 0.000000 0.000000 0.000000
0.124318 0.073634 0.018939 0.000000 0.000000 0.000000
0.144086 0.073634 0.017042 0.000000 0.000000 0.000000
0.158543 0.073634 0.019630 0.000000 0.000000 0.000000
0.176111 0.073634 0.019158 0.000000 0.000000 0.000000
0.193702 0.073634 0.017597 0.000000 0.000000 0.000000
0.207075 0.073634 0.018853 0.000000 0.000000 0.000000
0.227534 0.073634 0.019618 0.000000 0.000000 0.000000
0.244523 0.073634 0.018922 0.000000 0.000000 0.000000
0.261841 0.073634 0.019854 0.000000 0.000000 0.000000
0.278695 0.073634 0.019494 0.000000 0.000000 0.000000
0.295159 0.073634 0.020504 0.000000 0.000000 0.000000
0.311704 0.073634 0.019046 0.000000 0.000000 0.000000
0.330726 0.073634 0.020035 0.000000 0.000000 0.000000
0.347096 0.073634 0.019354 0.000000 0.000000 0.000000
0.363921 0.073634 0.018762 0.000000 0.000000 0.000000
0.380050 0.073634 0.018917 0.000000 0.000000 0.000000
0.400169 0.072734 0.019696 0.000000 0.000000 0.000000
-0.420142 0.060135 0.036070 0.000000 0.000000 0.000000
-0.401138 0.060300 0.035671 0.000000 0.000000 0.000000
-0.384031 0.060802 0.036274 0.000000 0.000000 0.000000
-0.366381 0.058840 0.037360 0.000000 0.000000 0.000000
-0.350350 0.059890 0.036569 0.000000 0.000000 0.000000
-0.334127 0.061495 0.036810 0.000000 0.000000 0.000000
-0.317533 0.058863 0.036012 0.000000 0.000000 0.000000
-0.299786 0.059913 0.036345 0.000000 0.000000 0.000000
-0.282735 0.061001 0.036172 0.000000 0.000000 0.000000
-0.264620 0.060206 0.037132 0.000000 0.000000 0.000000
-0.248241 0.061740 0.036469 0.000000 0.000000 0.000000
-0.231804 0.060206 0.036454 0.000000 0.000000 0.000000
-0.214247 0.060661 0.036950 0.000000 0.000000 0.000000
-0.197762 0.060032 0.037013 0.000000 0.000000 0.000000
-0.179676 0.060026 0.037102 0.000000 0.000000 0.000000
-0.163784 0.060307 0.036590 0.000000 0.000000 0.000000
-0.145845 0.058561 0.036881 0.000000 0.000000 0.000000
-0.130357 0.060206 0.036474 0.000000 0.000000 0.000000
-0.112076 0.058980 0.036540 0.000000 0.000000 0.000000
-0.095412 0.060603 0.037463 0.000000 0.000000 0.000000
-0.078227 0.059462 0.036593 0.000000 0.000000 0.000000
-0.062427 0.060206 0.037313 0.000000 0.000000 0.000000
-0.043958 0.060709 0.036355 0.000000 0.000000 0.000000
-0.027916 0.059324 0.037389 0.000000 0.000000 0.000000
-0.010623 0.060206 0.036200 0.000000 0.000000 0.000000
0.005103 0.059835 0.036422 0.000000 0.000000 0.000000
0.022607 0.060541 0.036223 0.000000 0.000000 0.000000
0.039793 0.059859 0.037348 0.000000 0.000000 0.000000
0.057141 0.059586 0.036193 0.000000 0.000000 0.000000
0.074142 0.060404 0.035881 0.000000 0.000000 0.000000
0.092129 0.059717 0.036104 0.000000 0.000000 0.000000
0.108164 0.060781 0.035557 0.000000 0.000000 0.000000
0.126130 0.059958 0.035865 0.000000 0.000000 0.000000
0.142666 0.061248 0.035705 0.000000 0.000000 0.000000
0.159203 0.060303 0.036515 0.000000 0.000000 0.000000
0.177986 0.060007 0.037583 0.000000 0.000000 0.000000
0.193613 0.059000 0.036635 0.000000 0.000000 0.000000
0.211354 0.059609 0.036078 0.000000 0.000000 0.000000
0.228254 0.061619 0.037163 0.000000 0.000000 0.000000
0.244005 0.061459 0.036714 0.000000 0.000000 0.000000
0.261982 0.059932 0.036670 0.000000 0.000000 0.000000
0.277855 0.059630 0.036415 0.000000 0.000000 0.000000
0.295297 0.060822 0.037728 0.000000 0.000000 0.000000
0.311774 0.059081 0.036013 0.000000 0.000000 0.000000
0.329659 0.059525 0.036145 0.000000 0.000000 0.000000
0.346089 0.059847 0.035475 0.000000 0.000000 0.000000
0.363140 0.060498 0.036544 0.000000 0.000000 0.000000
0.379343 0.059480 0.036276 0.000000 0.000000 0.000000
0.398556 0.060641 0.037497 0.000000 0.000000 0.000000
0.413863 0.059294 0.038087 0.000000 0.000000 0.000000
-0.411969 0.070505 0.036824 0.000000 0.000000 0.000000
-0.401326 0.073634 0.038431 0.000000 0.000000 0.000000
-0.385209 0.073634 0.036235 0.000000 0.000000 0.000000
-0.367469 0.073634 0.036697 0.000000 0.000000 0.000000
-0.350419 0.073634 0.035305 0.000000 0.000000 0.000000
-0.332332 0.073634 0.035897 0.000000 0.000000 0.000000
-0.317123 0.073634 0.036809 0.000000 0.000000 0.000000
-0.299033 0.073634 0.035480 0.000000 0.000000 0.000000
-0.282711 0.073634 0.036994 0.000000 0.000000 0.000000
-0.266151 0.073634 0.035978 0.000000 0.000000 0.000000
-0.247305 0.073634 0.035444 0.000000 0.000000 0.000000
-0.230996 0.073634 0.036563 0.000000 0.000000 0.000000
-0.215007 0.073634 0.037388 0.000000 0.000000 0.000000
-0.197486 0.073634 0.036826 0.000000 0.000000 0.000000
-0.182039 0.073634 0.036995 0.000000 0.000000 0.000000
-0.164209 0.073634 0.036148 0.000000 0.000000 0.000000
-0.145889 0.073634 0.035634 0.000000 0.000000 0.000000
-0.130527 0.073634 0.036634 0.000000 0.000000 0.000000
-0.111967 0.073634 0.035870 0.000000 0.000000 0.000000
-0.095403 0.073634 0.037834 0.000000 0.000000 0.000000
-0.078674 0.073634 0.036607 0.000000 0.000000 0.000000
-0.061890 0.073634 0.039296 0.000000 0.000000 0.000000
-0.043779 0.073634 0.037667 0.000000 0.000000 0.000000
-0.027036 0.073634 0.036700 0.000000 0.000000 0.000000
-0.010608 0.073634 0.036285 0.000000 0.000000 0.000000
0.006123 0.073634 0.035024 0.000000 0.000000 0.000000
0.022883 0.073634 0.034376 0.000000 0.000000 0.000000
0.040772 0.073634 0.035628 0.000000 0.000000 0.000000
0.056147 0.073634 0.035495 0.000000 0.000000 0.000000
0.074304 0.073634 0.037673 0.000000 0.000000 0.000000
0.089345 0.073634 0.036403 0.000000 0.000000 0.000000
0.108676 0.073634 0.036179 0.000000 0.000000 0.000000
0.124706 0.073634 0.036397 0.000000 0.000000 0.000000
0.142889 0.073634 0.036894 0.000000 0.000000 0.000000
0.159090 0.073634 0.035745 0.000000 0.000000 0.000000
0.176452 0.073634 0.037039 0.000000 0.000000 0.000000
0.193005 0.073634 0.035790 0.000000 0.000000 0.000000
0.209984 0.073634 0.036611 0.000000 0.000000 0.000000
0.228299 0.073634 0.034761 0.000000 0.000000 0.000000
0.246050 0.073634 0.036129 0.000000 0.000000 0.000000
0.262275 0.073634 0.036912 0.000000 0.000000 0.000000
0.279104 0.073634 0.036605 0.000000 0.000000 0.000000
0.294629 0.073634 0.036536 0.000000 0.000000 0.000000
0.311339 0.073634 0.034924 0.000000 0.000000 0.000000
0.328968 0.073634 0.036562 0.000000 0.000000 0.000000
0.346732 0.073634 0.036924 0.000000 0.000000 0.000000
0.362256 0.073634 0.036294 0.000000 0.000000 0.000000
0.381338 0.073634 0.036556 0.000000 0.000000 0.000000
0.398578 0.072343 0.036651 0.000000 0.000000 0.000000
-0.421360 0.060105 0.053856 0.000000 0.000000 0.000000
-0.401163 0.059657 0.053191 0.000000 0.000000 0.000000
-0.384110 0.060541 0.053039 0.000000 0.000000 0.000000
-0.367587 0.060488 0.053199 0.000000 0.000000 0.000000
-0.351062 0.060091 0.053494 0.000000 0.000000 0.000000
-0.333904 0.061006 0.054294 0.000000 0.000000 0.000000
-0.316758 0.061170 0.053124 0.000000 0.000000 0.000000
-0.300284 0.059047 0.052988 0.000000 0.000000 0.000000
-0.281105 0.060206 0.053945 0.000000 0.000000 0.000000
-0.266628 0.059972 0.053643 0.000000 0.000000 0.000000
-0.248981 0.060206 0.053702 0.000000 0.000000 0.000000
-0.229408 0.059961 0.053167 0.000000 0.000000 0.000000
-0.214341 0.060307 0.054105 0.000000 0.000000 0.000000
-0.197021 0.059932 0.052773 0.000000 0.000000 0.000000
-0.180590 0.060206 0.053558 0.000000 0.000000 0.000000
-0.163327 0.060128 0.053022 0.000000 0.000000 0.000000
-0.145756 0.059650 0.052355 0.000000 0.000000 0.000000
-0.128489 0.060998 0.054458 0.000000 0.000000 0.000000
-0.112434 0.059835 0.053548 0.000000 0.000000 0.000000
-0.094998 0.060564 0.053188 0.000000 0.000000 0.000000
-0.078421 0.060363 0.052971 0.000000 0.000000 0.000000
-0.062246 0.060315 0.052101 0.000000 0.000000 0.000000
-0.045117 0.059634 0.053856 0.000000 0.000000 0.000000
-0.029228 0.060646 0.053826 0.000000 0.000000 0.000000
-0.011678 0.061850 0.052645 0.000000 0.000000 0.000000
0.006976 0.059091 0.052753 0.000000 0.000000 0.000000
0.022782 0.059999 0.055259 0.000000 0.000000 0.000000
0.039389 0.060412 0.052883 0.000000 0.000000 0.000000
0.057417 0.061314 0.053327 0.000000 0.000000 0.000000
0.073582 0.059327 0.052125 0.000000 0.000000 0.000000
0.089549 0.058888 0.052670 0.000000 0.000000 0.000000
0.108912 0.059827 0.053349 0.000000 0.000000 0.000000
0.124682 0.060576 0.052951 0.000000 0.000000 0.000000
0.141108 0.060026 0.053415 0.000000 0.000000 0.000000
0.159188 0.062207 0.053696 0.000000 0.000000 0.000000
0.175605 0.059941 0.053095 0.000000 0.000000 0.000000
0.193712 0.060877 0.054113 0.000000 0.000000 0.000000
0.211569 0.060712 0.053728 0.000000 0.000000 0.000000
0.227919 0.060825 0.053810 0.000000 0.000000 0.000000
0.244248 0.059686 0.052974 0.000000 0.000000 0.000000
0.260902 0.060822 0.053050 0.000000 0.000000 0.000000
0.277950 0.060206 0.052754 0.000000 0.000000 0.000000
0.295205 0.061118 0.052242 0.000000 0.000000 0.000000
0.312724 0.060510 0.053678 0.000000 0.000000 0.000000
0.329907 0.060889 0.052283 0.000000 0.000000 0.000000
0.347815 0.059630 0.054165 0.000000 0.000000 0.000000
0.363182 0.060206 0.052879 0.000000 0.000000 0.000000
0.380192 0.060086 0.053746 0.000000 0.000000 0.000000
0.398793 0.059319 0.053471 0.000000 0.000000 0.000000
0.413990 0.060288 0.053176 0.000000 0.000000 0.000000
-0.411854 0.071401 0.053995 0.000000 0.000000 0.000000
-0.401235 0.073634 0.054523 0.000000 0.000000 0.000000
-0.384669 0.073634 0.052589 0.000000 0.000000 0.000000
-0.368479 0.073634 0.053269 0.000000 0.000000 0.000000
-0.350388 0.073634 0.052232 0.000000 0.000000 0.000000
-0.333897 0.073634 0.053668 0.000000 0.000000 0.000000
-0.318163 0.073634 0.052149 0.000000 0.000000 0.000000
-0.297974 0.073634 0.053540 0.000000 0.000000 0.000000
-0.282654 0.073634 0.052626 0.000000 0.000000 0.000000
-0.265774 0.073634 0.052725 0.000000 0.000000 0.000000
-0.247763 0.073634 0.054892 0.000000 0.000000 0.000000
-0.232326 0.073634 0.054061 0.000000 0.000000 0.000000
-0.214301 0.073634 0.052801 0.000000 0.000000 0.000000
-0.198192 0.073634 0.054079 0.000000 0.000000 0.000000
-0.181065 0.073634 0.052629 0.000000 0.000000 0.000000
-0.164615 0.073634 0.051098 0.000000 0.000000 0.000000
-0.145323 0.073634 0.055007 0.000000 0.000000 0.000000
-0.127545 0.073634 0.053174 0.000000 0.000000 0.000000
-0.112316 0.073634 0.053958 0.000000 0.000000 0.000000
-0.094782 0.073634 0.053486 0.000000 0.000000 0.000000
-0.079635 0.073634 0.053942 0.000000 0.000000 0.000000
-0.062760 0.073634 0.055297 0.000000 0.000000 0.000000
-0.044051 0.073634 0.055107 0.000000 0.000000 0.000000
-0.026133 0.073634 0.054641 0.000000 0.000000 0.000000
-0.011555 0.073634 0.054212 0.000000 0.000000 0.000000
0.007131 0.073634 0.055554 0.000000 0.000000 0.000000
0.023990 0.073634 0.052927 0.000000 0.000000 0.000000
0.039922 0.073634 0.052560 0.000000 0.000000 0.000000
0.056747 0.073634 0.053742 0.000000 0.000000 0.000000
0.075996 0.073634 0.055017 0.000000 0.000000 0.000000
0.089909 0.073634 0.051858 0.000000 0.000000 0.000000
0.108711 0.073634 0.052819 0.000000 0.000000 0.000000
0.126283 0.073634 0.053957 0.000000 0.000000 0.000000
0.142005 0.073634 0.053563 0.000000 0.000000 0.000000
0.159800 0.073634 0.052654 0.000000 0.000000 0.000000
0.174884 0.073634 0.052973 0.000000 0.000000 0.000000
0.193011 0.073634 0.053305 0.000000 0.000000 0.000000
0.211438 0.073634 0.053202 0.000000 0.000000 0.000000
0.227010 0.073634 0.053275 0.000000 0.000000 0.000000
0.246365 0.073634 0.055282 0.000000 0.000000 0.000000
0.261445 0.073634 0.053931 0.000000 0.000000 0.000000
0.277039 0.073634 0.050546 0.000000 0.000000 0.000000
0.295746 0.073634 0.053583 0.000000 0.000000 0.000000
0.313232 0.073634 0.053462 0.000000 0.000000 0.000000
0.330539 0.073634 0.054049 0.000000 0.000000 0.000000
0.347095 0.073634 0.054077 0.000000 0.000000 0.000000
0.364195 0.073634 0.054183 0.000000 0.000000 0.000000
0.380089 0.073634 0.053210 0.000000 0.000000 0.000000
0.397509 0.072853 0.053640 0.000000 0.000000 0.000000
-0.420610 0.060357 0.069894 0.000000 0.000000 0.000000
-0.400783 0.059061 0.070439 0.000000 0.000000 0.000000
-0.384080 0.060677 0.070909 0.000000 0.000000 0.000000
-0.366589 0.060320 0.071501 0.000000 0.000000 0.000000
-0.350711 0.059890 0.069759 0.000000 0.000000 0.000000
-0.332598 0.059779 0.069967 0.000000 0.000000 0.000000
-0.315375 0.060725 0.072361 0.000000 0.000000 0.000000
-0.300093 0.059094 0.070700 0.000000 0.000000 0.000000
-0.282232 0.059901 0.069331 0.000000 0.000000 0.000000
-0.266754 0.060949 0.069830 0.000000 0.000000 0.000000
-0.248998 0.061526 0.070300 0.000000 0.000000 0.000000
-0.231108 0.059468 0.071461 0.000000 0.000000 0.000000
-0.215060 0.060412 0.069966 0.000000 0.000000 0.000000
-0.197776 0.060521 0.070524 0.000000 0.000000 0.000000
-0.181126 0.061598 0.070706 0.000000 0.000000 0.000000
-0.163292 0.059950 0.069931 0.000000 0.000000 0.000000
-0.146136 0.060391 0.069385 0.000000 0.000000 0.000000
-0.128919 0.060973 0.069507 0.000000 0.000000 0.000000
-0.111914 0.060206 0.070245 0.000000 0.000000 0.000000
-0.094944 0.060767 0.071002 0.000000 0.000000 0.000000
-0.078215 0.060032 0.071040 0.000000 0.000000 0.000000
-0.062897 0.059561 0.070426 0.000000 0.000000 0.000000
-0.045351 0.059258 0.070348 0.000000 0.000000 0.000000
-0.027149 0.059690 0.071058 0.000000 0.000000 0.000000
-0.009937 0.060300 0.068647 0.000000 0.000000 0.000000
0.007234 0.059870 0.070670 0.000000 0.000000 0.000000
0.024064 0.060576 0.070466 0.000000 0.000000 0.000000
0.041431 0.060303 0.070063 0.000000 0.000000 0.000000
0.056798 0.059835 0.070260 0.000000 0.000000 0.000000
0.073035 0.059258 0.070029 0.000000 0.000000 0.000000
0.091580 0.059061 0.070584 0.000000 0.000000 0.000000
0.109093 0.060104 0.069925 0.000000 0.000000 0.000000
0.125719 0.060206 0.069483 0.000000 0.000000 0.000000
0.143615 0.060822 0.071040 0.000000 0.000000 0.000000
0.160649 0.060694 0.071162 0.000000 0.000000 0.000000
0.175252 0.060488 0.069517 0.000000 0.000000 0.000000
0.193473 0.060850 0.070088 0.000000 0.000000 0.000000
0.211219 0.060576 0.070413 0.000000 0.000000 0.000000
0.226924 0.061101 0.070434 0.000000 0.000000 0.000000
0.244336 0.061785 0.070275 0.000000 0.000000 0.000000
0.262789 0.060732 0.069625 0.000000 0.000000 0.000000
0.278607 0.059808 0.070755 0.000000 0.000000 0.000000
0.296379 0.060283 0.070933 0.000000 0.000000 0.000000
0.314395 0.060534 0.070351 0.000000 0.000000 0.000000
0.329755 0.059505 0.070724 0.000000 0.000000 0.000000
0.345527 0.061280 0.070228 0.000000 0.000000 0.000000
0.364287 0.059913 0.070467 0.000000 0.000000 0.000000
0.379890 0.060973 0.070685 0.000000 0.000000 0.000000
0.397164 0.058840 0.071608 0.000000 0.000000 0.000000
0.414241 0.059537 0.070642 0.000000 0.000000 0.000000
-0.411750 0.071142 0.072883 0.000000 0.000000 0.000000
-0.402396 0.073634 0.070339 0.000000 0.000000 0.000000
-0.384368 0.073634 0.070896 0.000000 0.000000 0.000000
-0.367896 0.073634 0.069144 0.000000 0.000000 0.000000
-0.350527 0.073634 0.070705 0.000000 0.000000 0.000000
-0.333761 0.073634 0.070501 0.000000 0.000000 0.000000
-0.317284 0.073634 0.070872 0.000000 0.000000 0.000000
-0.300358 0.073634 0.070477 0.000000 0.000000 0.000000
-0.283474 0.073634 0.069832 0.000000 0.000000 0.000000
-0.265782 0.073634 0.070068 0.000000 0.000000 0.000000
-0.249308 0.073634 0.070419 0.000000 0.000000 0.000000
-0.232128 0.073634 0.070232 0.000000 0.000000 0.000000
-0.213661 0.073634 0.068921 0.000000 0.000000 0.000000
-0.198269 0.073634 0.069505 0.000000 0.000000 0.000000
-0.180066 0.073634 0.069822 0.000000 0.000000 0.000000
-0.163925 0.073634 0.069385 0.000000 0.000000 0.000000
-0.147414 0.073634 0.071094 0.000000 0.000000 0.000000
-0.129922 0.073634 0.069850 0.000000 0.000000 0.000000
-0.112382 0.073634 0.070185 0.000000 0.000000 0.000000
-0.094622 0.073634 0.071487 0.000000 0.000000 0.000000
-0.076385 0.073634 0.070089 0.000000 0.000000 0.000000
-0.061763 0.073634 0.070283 0.000000 0.000000 0.000000
-0.044236 0.073634 0.070307 0.000000 0.000000 0.000000
-0.025819 0.073634 0.069306 0.000000 0.000000 0.000000
-0.010024 0.073634 0.070418 0.000000 0.000000 0.000000
0.004232 0.073634 0.070125 0.000000 0.000000 0.000000
0.023190 0.073634 0.069930 0.000000 0.000000 0.000000
0.041570 0.073634 0.070577 0.000000 0.000000 0.000000
0.058517 0.073634 0.071361 0.000000 0.000000 0.000000
0.075157 0.073634 0.067650 0.000000 0.000000 0.000000
0.091539 0.073634 0.068908 0.000000 0.000000 0.000000
0.108494 0.073634 0.070888 0.000000 0.000000 0.000000
0.126214 0.073634 0.070830 0.000000 0.000000 0.000000
0.142594 0.073634 0.070850 0.000000 0.000000 0.000000
0.159117 0.073634 0.072066 0.000000 0.000000 0.000000
0.177202 0.073634 0.069829 0.000000 0.000000 0.000000
0.192095 0.073634 0.069636 0.000000 0.000000 0.000000
0.210739 0.073634 0.070664 0.000000 0.000000 0.000000
0.227593 0.073634 0.071448 0.000000 0.000000 0.000000
0.243089 0.073634 0.071531 0.000000 0.000000 0.000000
0.260719 0.073634 0.069387 0.000000 0.000000 0.000000
0.278225 0.073634 0.070079 0.000000 0.000000 0.000000
0.295391 0.073634 0.070181 0.000000 0.000000 0.000000
0.311248 0.073634 0.070492 0.000000 0.000000 0.000000
0.330450 0.073634 0.070481 0.000000 0.000000 0.000000
0.347521 0.073634 0.068415 0.000000 0.000000 0.000000
0.364320 0.073634 0.069568 0.000000 0.000000 0.000000
0.380014 0.073634 0.069326 0.000000 0.000000 0.000000
0.400130 0.072353 0.069366 0.000000 0.000000 0.000000
-0.420150 0.060436 0.086853 0.000000 0.000000 0.000000
-0.401279 0.060379 0.086863 0.000000 0.000000 0.000000
-0.385587 0.060488 0.088211 0.000000 0.000000 0.000000
-0.367751 0.060404 0.086680 0.000000 0.000000 0.000000
-0.351701 0.061350 0.087423 0.000000 0.000000 0.000000
-0.333403 0.060534 0.087198 0.000000 0.000000 0.000000
-0.316430 0.060632 0.088515 0.000000 0.000000 0.000000
-0.299052 0.061207 0.086893 0.000000 0.000000 0.000000
-0.281937 0.059484 0.086318 0.000000 0.000000 0.000000
-0.266137 0.059717 0.086556 0.000000 0.000000 0.000000
-0.248386 0.059219 0.087833 0.000000 0.000000 0.000000
-0.231486 0.059870 0.087020 0.000000 0.000000 0.000000
-0.214605 0.061165 0.087437 0.000000 0.000000 0.000000
-0.197175 0.060368 0.087910 0.000000 0.000000 0.000000
-0.180159 0.059899 0.087299 0.000000 0.000000 0.000000
-0.163243 0.059661 0.086078 0.000000 0.000000 0.000000
-0.146012 0.059822 0.086758 0.000000 0.000000 0.000000
-0.129892 0.060117 0.087209 0.000000 0.000000 0.000000
-0.112864 0.060453 0.087855 0.000000 0.000000 0.000000
-0.095497 0.059913 0.087679 0.000000 0.000000 0.000000
-0.078854 0.059965 0.086858 0.000000 0.000000 0.000000
-0.061326 0.060922 0.086484 0.000000 0.000000 0.000000
-0.045039 0.059386 0.087252 0.000000 0.000000 0.000000
-0.028298 0.060286 0.086780 0.000000 0.000000 0.000000
-0.010360 0.059589 0.086444 0.000000 0.000000 0.000000
0.006268 0.059496 0.086255 0.000000 0.000000 0.000000
0.022819 0.060300 0.088067 0.000000 0.000000 0.000000
0.040065 0.060385 0.087126 0.000000 0.000000 0.000000
0.058023 0.060653 0.088051 0.000000 0.000000 0.000000
0.073764 0.060397 0.087066 0.000000 0.000000 0.000000
0.092054 0.059792 0.087622 0.000000 0.000000 0.000000
0.107799 0.062061 0.087362 0.000000 0.000000 0.000000
0.126281 0.060368 0.086197 0.000000 0.000000 0.000000
0.141986 0.061118 0.088740 0.000000 0.000000 0.000000
0.160362 0.059822 0.087597 0.000000 0.000000 0.000000
0.177159 0.059941 0.087506 0.000000 0.000000 0.000000
0.193066 0.060206 0.087389 0.000000 0.000000 0.000000
0.209792 0.058342 0.087054 0.000000 0.000000 0.000000
0.227261 0.059972 0.087236 0.000000 0.000000 0.000000
0.245316 0.059258 0.086708 0.000000 0.000000 0.000000
0.260604 0.060589 0.087445 0.000000 0.000000 0.000000
0.278574 0.060294 0.087492 0.000000 0.000000 0.000000
0.295487 0.059699 0.087528 0.000000 0.000000 0.000000
0.312065 0.060206 0.086993 0.000000 0.000000 0.000000
0.329172 0.060927 0.087815 0.000000 0.000000 0.000000
0.346836 0.060552 0.087661 0.000000 0.000000 0.000000
0.362425 0.059822 0.087758 0.000000 0.000000 0.000000
0.379160 0.059589 0.086474 0.000000 0.000000 0.000000
0.397500 0.060585 0.086308 0.000000 0.000000 0.000000
0.414855 0.060192 0.087534 0.000000 0.000000 0.000000
-0.411616 0.071859 0.088773 0.000000 0.000000 0.000000
-0.401231 0.073634 0.086522 0.000000 0.000000 0.000000
-0.384369 0.073634 0.087243 0.000000 0.000000 0.000000
-0.368839 0.073634 0.085984 0.000000 0.000000 0.000000
-0.352285 0.073634 0.087968 0.000000 0.000000 0.000000
-0.333200 0.073634 0.085217 0.000000 0.000000 0.000000
-0.316282 0.073634 0.088940 0.000000 0.000000 0.000000
-0.299778 0.073634 0.086981 0.000000 0.000000 0.000000
-0.283300 0.073634 0.086647 0.000000 0.000000 0.000000
-0.265883 0.073634 0.089572 0.000000 0.000000 0.000000
-0.248742 0.073634 0.086673 0.000000 0.000000 0.000000
-0.232879 0.073634 0.087443 0.000000 0.000000 0.000000
-0.214603 0.073634 0.086112 0.000000 0.000000 0.000000
-0.198821 0.073634 0.086881 0.000000 0.000000 0.000000
-0.182386 0.073634 0.086416 0.000000 0.000000 0.000000
-0.163648 0.073634 0.088129 0.000000 0.000000 0.000000
-0.148881 0.073634 0.088484 0.000000 0.000000 0.000000
-0.128775 0.073634 0.087546 0.000000 0.000000 0.000000
-0.113833 0.073634 0.086611 0.000000 0.000000 0.000000
-0.096092 0.073634 0.088202 0.000000 0.000000 0.000000
-0.077734 0.073634 0.085616 0.000000 0.000000 0.000000
-0.060918 0.073634 0.087370 0.000000 0.000000 0.000000
-0.044107 0.073634 0.087263 0.000000 0.000000 0.000000
-0.026978 0.073634 0.088138 0.000000 0.000000 0.000000
-0.009619 0.073634 0.087329 0.000000 0.000000 0.000000
0.005209 0.073634 0.088475 0.000000 0.000000 0.000000
0.024170 0.073634 0.086413 0.000000 0.000000 0.000000
0.039881 0.073634 0.086422 0.000000 0.000000 0.000000
0.057476 0.073634 0.087940 0.000000 0.000000 0.000000
0.074454 0.073634 0.086955 0.000000 0.000000 0.000000
0.091005 0.073634 0.086853 0.000000 0.000000 0.000000
0.109650 0.073634 0.088633 0.000000 0.000000 0.000000
0.125797 0.073634 0.085848 0.000000 0.000000 0.000000
0.140732 0.073634 0.086912 0.000000 0.000000 0.000000
0.159247 0.073634 0.086844 0.000000 0.000000 0.000000
0.177490 0.073634 0.087892 0.000000 0.000000 0.000000
0.192912 0.073634 0.086312 0.000000 0.000000 0.000000
0.211361 0.073634 0.086321 0.000000 0.000000 0.000000
0.226696 0.073634 0.087572 0.000000 0.000000 0.000000
0.244694 0.073634 0.086044 0.000000 0.000000 0.000000
0.261588 0.073634 0.088320 0.000000 0.000000 0.000000
0.278524 0.073634 0.088551 0.000000 0.000000 0.000000
0.295316 0.073634 0.087616 0.000000 0.000000 0.000000
0.312315 0.073634 0.087988 0.000000 0.000000 0.000000
0.330067 0.073634 0.086128 0.000000 0.000000 0.000000
0.345718 0.073634 0.087142 0.000000 0.000000 0.000000
0.362487 0.073634 0.085683 0.000000 0.000000 0.000000
0.380330 0.073634 0.086435 0.000000 0.000000 0.000000
0.399801 0.072211 0.088590 0.000000 0.000000 0.000000
-0.420571 0.060947 0.104827 0.000000 0.000000 0.000000
-0.400521 0.061250 0.104221 0.000000 0.000000 0.000000
-0.385179 0.061381 0.104853 0.000000 0.000000 0.000000
-0.366434 0.060007 0.104619 0.000000 0.000000 0.000000
-0.350014 0.060450 0.104322 0.000000 0.000000 0.000000
-0.332669 0.061182 0.104257 0.000000 0.000000 0.000000
-0.317273 0.060498 0.104330 0.000000 0.000000 0.000000
-0.299694 0.060026 0.103952 0.000000 0.000000 0.000000
-0.281510 0.059237 0.104777 0.000000 0.000000 0.000000
-0.266112 0.059859 0.104708 0.000000 0.000000 0.000000
-0.247735 0.059699 0.104980 0.000000 0.000000 0.000000
-0.232656 0.059543 0.104159 0.000000 0.000000 0.000000
-0.215062 0.059913 0.104150 0.000000 0.000000 0.000000
-0.198659 0.060521 0.103958 0.000000 0.000000 0.000000
-0.179316 0.060325 0.104158 0.000000 0.000000 0.000000
-0.163531 0.060470 0.104940 0.000000 0.000000 0.000000
-0.146086 0.059581 0.104651 0.000000 0.000000 0.000000
-0.130326 0.060541 0.103721 0.000000 0.000000 0.000000
-0.112248 0.060125 0.104176 0.000000 0.000000 0.000000
-0.095497 0.060038 0.103299 0.000000 0.000000 0.000000
-0.078596 0.060822 0.103823 0.000000 0.000000 0.000000
-0.062073 0.060206 0.105037 0.000000 0.000000 0.000000
-0.044997 0.059901 0.103448 0.000000 0.000000 0.000000
-0.026438 0.060420 0.104525 0.000000 0.000000 0.000000
-0.010966 0.061938 0.103504 0.000000 0.000000 0.000000
0.006760 0.060294 0.105276 0.000000 0.000000 0.000000
0.023056 0.060802 0.104296 0.000000 0.000000 0.000000
0.041010 0.060825 0.105268 0.000000 0.000000 0.000000
0.057369 0.061065 0.104128 0.000000 0.000000 0.000000
0.073892 0.060850 0.104865 0.000000 0.000000 0.000000
0.091252 0.059668 0.102733 0.000000 0.000000 0.000000
0.108438 0.060843 0.104961 0.000000 0.000000 0.000000
0.125016 0.061001 0.104661 0.000000 0.000000 0.000000
0.141802 0.061025 0.104150 0.000000 0.000000 0.000000
0.159566 0.061345 0.104873 0.000000 0.000000 0.000000
0.176647 0.060297 0.103144 0.000000 0.000000 0.000000
0.194293 0.060564 0.104383 0.000000 0.000000 0.000000
0.210424 0.059982 0.103306 0.000000 0.000000 0.000000
0.227145 0.061280 0.104440 0.000000 0.000000 0.000000
0.243231 0.059609 0.102723 0.000000 0.000000 0.000000
0.260417 0.059131 0.104547 0.000000 0.000000 0.000000
0.278124 0.060784 0.104307 0.000000 0.000000 0.000000
0.294734 0.059650 0.103347 0.000000 0.000000 0.000000
0.313832 0.060922 0.104432 0.000000 0.000000 0.000000
0.329725 0.060865 0.103934 0.000000 0.000000 0.000000
0.344812 0.060850 0.104009 0.000000 0.000000 0.000000
0.363649 0.060973 0.105052 0.000000 0.000000 0.000000
0.380310 0.059859 0.104464 0.000000 0.000000 0.000000
0.397912 0.060575 0.104947 0.000000 0.000000 0.000000
0.414332 0.061502 0.103992 0.000000 0.000000 0.000000
-0.411666 0.071598 0.104776 0.000000 0.000000 0.000000
-0.402225 0.073634 0.104691 0.000000 0.000000 0.000000
-0.385682 0.073634 0.105447 0.000000 0.000000 0.000000
-0.369009 0.073634 0.104120 0.000000 0.000000 0.000000
-0.351505 0.073634 0.103806 0.000000 0.000000 0.000000
-0.333042 0.073634 0.104753 0.000000 0.000000 0.000000
-0.316236 0.073634 0.103963 0.000000 0.000000 0.000000
-0.300558 0.073634 0.102150 0.000000 0.000000 0.000000
-0.282606 0.073634 0.105461 0.000000 0.000000 0.000000
-0.264857 0.073634 0.103892 0.000000 0.000000 0.000000
-0.248547 0.073634 0.105078 0.000000 0.000000 0.000000
-0.232432 0.073634 0.103634 0.000000 0.000000 0.000000
-0.215008 0.073634 0.103127 0.000000 0.000000 0.000000
-0.196485 0.073634 0.104745 0.000000 0.000000 0.000000
-0.180106 0.073634 0.105400 0.000000 0.000000 0.000000
-0.163248 0.073634 0.104878 0.000000 0.000000 0.000000
-0.144927 0.073634 0.105785 0.000000 0.000000 0.000000
-0.131382 0.073634 0.103576 0.000000 0.000000 0.000000
-0.113633 0.073634 0.105322 0.000000 0.000000 0.000000
-0.094771 0.073634 0.104469 0.000000 0.000000 0.000000
-0.077604 0.073634 0.103203 0.000000 0.000000 0.000000
-0.059743 0.073634 0.103442 0.000000 0.000000 0.000000
-0.044290 0.073634 0.105353 0.000000 0.000000 0.000000
-0.026852 0.073634 0.104165 0.000000 0.000000 0.000000
-0.009320 0.073634 0.104037 0.000000 0.000000 0.000000
0.006411 0.073634 0.104402 0.000000 0.000000 0.000000
0.022890 0.073634 0.103954 0.000000 0.000000 0.000000
0.040684 0.073634 0.104882 0.000000 0.000000 0.000000
0.057678 0.073634 0.105879 0.000000 0.000000 0.000000
0.073773 0.073634 0.103177 0.000000 0.000000 0.000000
0.090218 0.073634 0.104051 0.000000 0.000000 0.000000
0.109279 0.073634 0.102963 0.000000 0.000000 0.000000
0.124478 0.073634 0.103218 0.000000 0.000000 0.000000
